202

124 10.516727657217 8.900383000240 0.2829
39 9.734317952333 9.517518386113 0.2844
24 9.731677527993 11.953488488805 0.2735
77 9.253223521655 10.363053281315 0.2703
100 11.255795410253 10.107513771524 0.2612
0 9.648738442381 11.289591108822 0.2757
40 10.395756456189 10.167994531185 0.2826
78 10.376852321737 10.855359027894 0.2508
101 8.912505294953 9.933043373588 0.2599
41 9.873953788164 8.310919442608 0.2791
1 9.980895476612 9.532510807753 0.2655
79 11.261727840833 11.369998492740 0.2900
102 8.919670008693 11.316975270801 0.2565
42 10.853290157316 10.354630650314 0.2612
2 7.978430148096 10.335122853051 0.2738
80 8.748184275795 9.882064897824 0.2577
103 9.562536576481 9.661681451095 0.2510
43 9.860605904849 9.325206034163 0.2626
3 8.433301970878 8.605625146266 0.2887
81 10.089481200402 9.316744292746 0.2668
104 9.943788276319 10.128167556246 0.2705
4 10.463523961048 9.645027011801 0.2890
44 9.756762706551 8.606805453742 0.2702
105 10.213938967862 9.143306066118 0.2560
82 9.708083053229 10.963831859506 0.2663
45 8.302799193181 9.755522779483 0.2671
106 9.393561831277 10.921174658870 0.2678
46 10.614871765880 10.102360022665 0.2871
107 10.509958376690 10.629371060148 0.2601
47 9.538337706729 11.105797676543 0.2572
48 10.291234198913 11.473695265996 0.2560
108 10.490791363425 11.342635529817 0.2860
49 9.271655982151 12.169184120054 0.2754
109 8.887001801304 10.140759680811 0.2782
110 10.173087173605 10.945579355315 0.2534
83 9.561541735508 11.487433537173 0.2720
111 10.184986275168 10.170611846473 0.2571
5 7.976591901326 9.798981985454 0.2824
84 9.889308377845 11.326752264234 0.2580
6 11.588185279526 10.080847983543 0.2865
85 10.310377895374 9.951815627207 0.2649
86 9.616973959443 9.322140785898 0.2546
7 9.666065263186 10.448352971384 0.2598
8 10.709259387593 9.633678167302 0.2677
9 11.567412631215 10.500022299389 0.2722
10 7.878991517513 9.279369488938 0.2892
11 8.413575339369 9.123512600222 0.2707
202

-2 0.0 0.0 0.00000001 0.0 0.0
-1 20.000000 20.000000 0.00000001 0.0 0.0
175 9.461156889984 10.364124348710 0.2567
125 10.182458659426 8.676715133083 0.2696
62 11.142307957995 10.870992482113 0.2729
112 10.519618214759 9.392885855405 0.2626
126 9.582066447541 10.792224841070 0.2674
176 9.302663901851 9.231855361034 0.2695
63 8.761459577205 10.899597397677 0.2729
113 8.322178879134 9.375628758360 0.2822
177 9.146660198351 11.184514824275 0.2626
127 10.119964775154 10.749928553552 0.2688
64 11.516349869997 10.992639445106 0.2890
114 10.103839845115 9.992711292193 0.2509
115 8.280565575616 11.321344783053 0.2758
65 9.885531492350 10.508749207165 0.2877
128 10.218745392283 8.373241653235 0.2800
178 9.128560091471 10.698091985600 0.2502
66 10.990074050568 9.965226737882 0.2688
116 8.886616160743 8.908625114985 0.2778
179 11.185924956441 10.333983032473 0.2778
129 8.779651063703 11.584627047403 0.2873
117 9.860925608072 11.122415296638 0.2604
67 10.258510059506 9.751234155334 0.2642
180 9.465059992518 9.068361628836 0.2553
130 8.622494771384 10.761370001990 0.2530
68 10.666864600608 8.549322691292 0.2830
118 9.475611297697 9.837301706314 0.2609
181 11.029179017604 11.190723030052 0.2850
131 8.995948993788 9.787947553330 0.2584
69 8.009082064522 10.039619075496 0.2820
119 8.628431039289 10.077989143420 0.2714
182 9.386206599311 10.189203063624 0.2624
132 9.970122987543 10.900020020473 0.2625
120 10.627238026341 10.811879638716 0.2633
70 8.355292050332 10.013918815446 0.2847
183 8.920045631744 11.788269584187 0.2798
133 9.097692935669 9.108521117365 0.2777
71 8.231284685354 10.217686218033 0.2583
121 8.592452179509 9.322850158702 0.2774
184 8.512209237996 11.527017268728 0.2731
134 10.856215254723 10.993466478042 0.2805
72 8.835012820539 10.632563263389 0.2673
122 9.149502867963 10.136962777100 0.2535
135 10.038468602070 10.328697299445 0.2854
185 10.410130510948 9.155701638461 0.2740
123 10.967249882768 11.718510084600 0.2847
73 10.127647827648 12.212539881917 0.2816
136 9.999660789845 11.557147050632 0.2566
186 9.240437053189 9.779196615182 0.2854
74 9.254672965240 11.387586630765 0.2569
124 10.596820337316 8.882396963685 0.2829
187 10.725635808506 11.240479389554 0.2608
137 7.923157278474 10.608108105321 0.2825
100 11.257479837076 10.106003977522 0.2612
50 8.609463979735 10.530188418318 0.2873
188 10.624130766310 12.075826179333 0.2877
138 9.888665749707 10.727919980397 0.2520
101 8.927518882135 10.011144942434 0.2599
51 10.336344650085 8.911210803850 0.2822
139 10.177151511657 11.844530053705 0.2839
189 10.280361074785 9.411348599572 0.2795
102 8.953020721578 11.284273714100 0.2565
52 8.454311993807 10.279297388515 0.2833
140 8.525136687907 9.821736884613 0.2758
190 8.242301900601 11.051588109824 0.2777
103 9.543204352702 9.665791906337 0.2510
53 9.705129589810 10.709382292511 0.2784
191 9.421896160829 9.505004566396 0.2653
141 8.137982560620 9.543575456385 0.2600
54 9.822014411511 10.284999394622 0.2864
104 9.976908672661 10.102954510209 0.2705
142 9.047657092418 10.283370588071 0.2547
192 8.830535439167 9.182903945475 0.2659
55 10.306455894339 10.637879411736 0.2548
105 10.160951177688 9.162129961771 0.2560
143 9.211300499181 9.616204193714 0.2614
193 10.071358860809 11.120806171134 0.2727
106 9.432677338341 10.932949003836 0.2678
56 9.373539303156 8.286871642594 0.2880
194 11.241452444565 10.629090636438 0.2798
144 9.764793481976 11.535290949961 0.2634
57 8.019383354873 11.520647632283 0.2824
107 10.510598824795 10.603359715733 0.2601
145 9.031119079475 9.342769811695 0.2516
195 10.653279900153 10.307691108664 0.2641
58 9.233476871273 11.907094052724 0.2865
108 10.494922626702 11.369056673469 0.2860
146 9.745795147108 8.923651938392 0.2738
196 9.035437043648 10.997418187223 0.2561
109 8.838398262457 10.181853798114 0.2782
59 9.326099634397 8.625132131333 0.2715
147 8.811439828765 11.108280068423 0.2603
197 9.660262413223 12.260633492779 0.2813
110 10.193274461990 10.961779840578 0.2534
60 8.194476548827 10.528045176492 0.2710
148 8.622848882192 8.934396179180 0.2765
198 10.562094881468 11.032269592408 0.2625
111 10.183159191056 10.200013513542 0.2571
61 10.720534897700 11.532475411104 0.2879
199 9.508769139495 8.800871621418 0.2662
149 7.797401368125 11.110456982331 0.2878
87 9.366464334559 10.713211744152 0.2603
162 9.927331248399 9.100474550273 0.2658
25 9.538457865591 10.575472165245 0.2583
150 9.254316936452 8.936534324359 0.2667
88 11.166924374218 9.820949313926 0.2533
163 10.359091410691 11.117753613710 0.2614
151 10.710909703370 9.277256117653 0.2568
26 9.440478318867 11.269533329384 0.2704
164 8.685335768403 10.338945808047 0.2893
89 9.787316358543 9.683489177337 0.2573
27 10.247627149312 10.440730109466 0.2659
152 10.734710936529 9.797139305906 0.2637
165 9.909740527768 11.809291073300 0.2795
90 9.556089058072 10.043427931702 0.2740
153 8.777625399048 12.097156224692 0.2771
28 11.365147396035 9.268243064661 0.2879
166 10.849076310962 10.733424856652 0.2614
91 8.886706419775 8.377908036781 0.2829
29 8.382750563689 11.855562639152 0.2898
154 10.161636959121 9.584903255299 0.2583
167 7.646913936822 10.176844134525 0.2592
92 8.574179538549 9.580125544972 0.2610
155 9.529532891063 11.752958603485 0.2619
30 9.014210862567 8.673805060665 0.2878
93 9.300953138378 11.073009284282 0.2566
168 7.590594901904 10.651837357617 0.2836
31 8.811610122198 9.426857467240 0.2525
156 10.778729694685 10.040979168016 0.2505
169 9.337825407004 9.986152245813 0.2752
94 9.614045915350 10.222862375285 0.2822
157 9.764027771909 10.052278681324 0.2533
32 9.132481878487 9.955412313009 0.2617
95 10.458038127050 11.777948093243 0.2895
170 10.504818454268 9.858928697909 0.2614
33 9.699585320895 9.877038709393 0.2785
158 11.449548118309 9.680143234155 0.2720
96 9.212571450582 10.878545062039 0.2535
171 8.910652982101 10.442921406658 0.2705
159 10.218608917528 11.320873899838 0.2811
34 8.066141978154 10.851994446282 0.2611
97 11.035461319699 9.378982031678 0.2768
172 9.053681338383 11.491227090544 0.2567
160 10.735483043304 10.537829668047 0.2771
35 9.232417268719 9.433202557334 0.2507
173 9.288557386998 11.650155907818 0.2724
98 10.968556445092 10.477875160168 0.2740
161 10.078515578148 10.557925519811 0.2641
36 9.671351652173 9.172845556804 0.2584
174 8.771966285378 9.677977153960 0.2668
99 8.960799633408 10.797586713325 0.2565
12 9.100739054437 10.516928537737 0.2651
37 8.653762849129 11.298173544920 0.2820
75 10.990143716029 9.620901772123 0.2880
0 9.694116746721 11.315543610265 0.2757
38 8.526446527607 11.058388796293 0.2896
13 9.894463063794 9.876930814559 0.2650
1 9.947802921600 9.564933473190 0.2655
76 8.989834725694 9.587268476366 0.2537
39 9.686825399655 9.491006151906 0.2844
14 11.096779802500 8.843180681282 0.2891
77 9.264775866546 10.354737351341 0.2703
2 7.956419017909 10.324371934040 0.2738
15 10.461177894662 10.392883351542 0.2793
40 10.384783434237 10.198867152077 0.2826
3 8.484070637088 8.607266811287 0.2887
78 10.389497072014 10.854861273986 0.2508
41 9.788487242554 8.366100445663 0.2791
16 8.401351975138 10.555921939111 0.2500
79 11.252947220311 11.391121930155 0.2900
4 10.463997911185 9.618515556461 0.2890
17 10.865105078740 9.076449282400 0.2863
42 10.892428046308 10.240565328415 0.2612
18 8.126866170583 8.917738209025 0.2785
5 7.982172491538 9.786536029920 0.2824
80 8.774624571266 9.897016479741 0.2577
81 10.037333364347 9.347529020504 0.2668
43 9.823285192457 9.343986488733 0.2626
6 11.608706705239 10.078222727730 0.2865
19 9.323180181856 10.538505044399 0.2746
82 9.741306260642 10.969155748091 0.2663
7 9.682593939438 10.446847729701 0.2598
83 9.522795746600 11.488918539106 0.2720
44 9.748047604842 8.645164559566 0.2702
8 10.715687666306 9.581754700144 0.2677
45 8.317582557046 9.751438041821 0.2671
84 9.952580413352 11.330221897104 0.2580
9 11.555281569319 10.516086981445 0.2722
85 10.312805639645 9.954979818560 0.2649
46 10.567892315953 10.083597343626 0.2871
20 10.037849626020 9.789706184370 0.2501
10 7.877233044898 9.279556740610 0.2892
47 9.586117408674 11.094209534208 0.2572
86 9.533844619463 9.321906564726 0.2546
11 8.395431277687 9.119091238138 0.2707
21 7.637429572108 9.708493925112 0.2891
48 10.271512913181 11.523901642658 0.2560
22 8.377071494894 10.818048746569 0.2803
49 9.241784431343 12.192349952591 0.2754
23 10.006146795046 8.847131557349 0.2858
24 9.689571469710 11.953045529221 0.2735
202

-2 0.0 0.0 0.00000001 0.0 0.0
-1 20.000000 20.000000 0.00000001 0.0 0.0
62 11.152185068780 10.851544787290 0.2729
162 9.947661405934 9.108143448322 0.2658
163 10.361312794922 11.111575286816 0.2614
63 8.774806894225 10.900435176406 0.2729
175 9.444307910950 10.389263900811 0.2567
164 8.658818679622 10.346021155037 0.2893
125 10.190504805275 8.682845837770 0.2696
64 11.521661648495 10.969895462096 0.2890
165 9.937756246173 11.795697452515 0.2795
176 9.293164289725 9.160511774326 0.2695
65 9.865432422858 10.508075707934 0.2877
126 9.513142125748 10.814055603758 0.2674
177 9.131755500429 11.198112139587 0.2626
166 10.873875417455 10.713444785839 0.2614
127 10.148684501196 10.750470369529 0.2688
66 10.937791301502 9.903118784149 0.2688
178 9.089996543575 10.671253035391 0.2502
167 7.653728869839 10.165395694965 0.2592
67 10.246240888600 9.718155673596 0.2642
128 10.227095073608 8.376631162531 0.2800
179 11.187341236545 10.320488826263 0.2778
168 7.605576958933 10.642437037600 0.2836
129 8.812690956560 11.583038366849 0.2873
68 10.664183674217 8.546610928847 0.2830
169 9.327081901912 9.995513096214 0.2752
180 9.538225534256 9.081306294194 0.2553
130 8.573755021386 10.824544721038 0.2530
69 8.051629124926 10.011905147722 0.2820
170 10.462967300492 9.861838053470 0.2614
181 11.035774087187 11.177334692127 0.2850
70 8.294803641967 9.890405439231 0.2847
131 9.009182100866 9.767270669098 0.2584
171 8.870954481470 10.464511006143 0.2705
182 9.358106937385 10.210002429883 0.2624
132 9.963497953198 10.894328510364 0.2625
71 8.351493343333 10.128505982514 0.2583
183 8.951628685982 11.807400045582 0.2798
172 9.063110716660 11.492596975451 0.2567
133 9.092435134405 9.070259420330 0.2777
72 8.800925858206 10.663398340999 0.2673
184 8.556634167856 11.607892552170 0.2731
173 9.292521929344 11.659383998902 0.2724
134 10.863364558936 10.980185749871 0.2805
73 10.156782688107 12.201249620247 0.2816
174 8.790135897036 9.695419721617 0.2668
185 10.413602254944 9.162147583963 0.2740
74 9.273361511972 11.401364336697 0.2569
135 10.040084453867 10.345686906104 0.2854
150 9.318019996944 8.934297706857 0.2667
186 9.230893971294 9.787337082295 0.2854
136 10.002606580009 11.528465475351 0.2566
50 8.599264031558 10.572817929154 0.2873
187 10.734200242603 11.241729004412 0.2608
151 10.692591752727 9.262151803958 0.2568
51 10.319805044653 8.925357433887 0.2822
137 7.918964450247 10.597729640882 0.2825
188 10.644399625713 12.059963797913 0.2877
152 10.690878100328 9.783030741025 0.2637
52 8.414169299428 10.352999476392 0.2833
138 9.894415081414 10.716550229490 0.2520
153 8.794621258932 12.097099994124 0.2771
189 10.281143529185 9.452851436945 0.2795
139 10.199372810032 11.837154848665 0.2839
53 9.694579537959 10.717666537074 0.2784
154 10.105594856416 9.570233906903 0.2583
190 8.128838900627 11.068462904608 0.2777
54 9.818187870899 10.278870942068 0.2864
140 8.535624332579 9.817282969084 0.2758
191 9.417519946851 9.586235036875 0.2653
155 9.540964728419 11.761141313639 0.2619
141 8.138989530070 9.500610510617 0.2600
55 10.304195269802 10.626084215790 0.2548
156 10.769560031944 10.029947403100 0.2505
192 8.876838165099 9.192754810931 0.2659
142 8.966715879216 10.293443747746 0.2547
56 9.379403094056 8.285613832877 0.2880
193 10.065601635767 11.106371980470 0.2727
157 9.748416389929 10.102180885484 0.2533
143 9.180855582328 9.581091945942 0.2614
57 8.043340408881 11.536264573547 0.2824
144 9.772478558219 11.547670586809 0.2634
158 11.449934907763 9.658376129809 0.2720
58 9.261699690923 11.922385814725 0.2865
159 10.221997385882 11.308458325295 0.2811
59 9.339014517946 8.632921418898 0.2715
160 10.733957431992 10.537658034616 0.2771
194 11.233102892026 10.605897094854 0.2798
60 8.171845955033 10.385018522212 0.2710
161 10.072350522503 10.550009345119 0.2641
195 10.662642495868 10.290625503027 0.2641
61 10.727819762668 11.521554937009 0.2879
196 9.001711864404 11.015003650149 0.2561
112 10.520645015919 9.398590174902 0.2626
87 9.331662793359 10.733769836696 0.2603
197 9.695811304155 12.256232252485 0.2813
113 8.348244867937 9.352761391992 0.2822
198 10.563958155705 11.028822514373 0.2625
88 11.166267198885 9.838230226484 0.2533
199 9.538504362446 8.791624023550 0.2662
114 10.104039592280 9.966362321119 0.2509
89 9.793013474310 9.730956863887 0.2573
115 8.306176747424 11.345753373693 0.2758
25 9.524581754618 10.590296009054 0.2583
90 9.536400082676 10.054359691044 0.2740
26 9.451176150690 11.252844609703 0.2704
116 8.879622572433 8.898093745355 0.2778
91 8.898015372532 8.382782021126 0.2829
27 10.229288656871 10.414839651446 0.2659
117 9.831528253288 11.093368961125 0.2604
92 8.638550761310 9.550973152007 0.2610
93 9.288200750980 11.096415807473 0.2566
94 9.576517170609 10.248445644226 0.2822
118 9.443959236781 9.838652359016 0.2609
95 10.475894765075 11.750400121306 0.2895
119 8.578982225740 10.080182675454 0.2714
96 9.192783302098 10.890624959442 0.2535
120 10.645932446541 10.817273063079 0.2633
97 11.021895924257 9.367127405202 0.2768
121 8.628214535461 9.277863752417 0.2774
98 10.953181334764 10.444051188112 0.2740
122 9.124408298593 10.168577437130 0.2535
99 8.964676679133 10.802832458448 0.2565
75 11.024433348915 9.605382472384 0.2880
123 10.987869896937 11.706342712844 0.2847
76 9.005533744808 9.566592001368 0.2537
124 10.581272614693 8.871698832545 0.2829
77 9.243687267029 10.352890452782 0.2703
100 11.251394370640 10.089445954294 0.2612
78 10.399269813473 10.850505056845 0.2508
101 8.930107701970 9.986719960573 0.2599
79 11.264328033889 11.372310615969 0.2900
102 8.941628998866 11.295263706147 0.2565
80 8.757410578895 9.916061771929 0.2577
103 9.612604218391 9.704300589665 0.2510
81 10.024206820327 9.343470371341 0.2668
104 9.992213904320 10.119593280031 0.2705
82 9.715290709703 10.915494704867 0.2663
105 10.184385927162 9.197064847547 0.2560
83 9.523816099824 11.492983760450 0.2720
106 9.437193976938 10.982470528988 0.2678
84 9.951589402277 11.297235241575 0.2580
107 10.512491001555 10.624989605174 0.2601
85 10.301265464698 9.976514018915 0.2649
108 10.493168792521 11.351913211674 0.2860
86 9.520311122590 9.314073968061 0.2546
109 8.785145436138 10.170125807601 0.2782
12 9.087364429491 10.502132129715 0.2651
110 10.193354655691 10.944817043451 0.2534
13 9.866614137268 9.937777403124 0.2650
111 10.199586862729 10.210835409132 0.2571
14 11.086087100649 8.830688715827 0.2891
37 8.612085948152 11.328615001531 0.2820
15 10.465456346684 10.404548239256 0.2793
38 8.505348205205 11.097777778818 0.2896
16 8.369283205442 10.603874691785 0.2500
39 9.643470398338 9.491182686466 0.2844
17 10.859592394311 9.065151922573 0.2863
40 10.388500690194 10.199751726588 0.2826
18 8.133235579991 8.914303371892 0.2785
41 9.798830372572 8.351628745121 0.2791
19 9.291018243379 10.545580010078 0.2746
42 10.914441958504 10.205054868409 0.2612
20 10.016603466124 9.783639952569 0.2501
43 9.818346296392 9.410698820763 0.2626
21 7.647444045662 9.712570459394 0.2891
44 9.759300015458 8.636470735506 0.2702
22 8.326044128745 10.889623746174 0.2803
45 8.393457917982 9.633500080670 0.2671
46 10.551087743010 10.063154528434 0.2871
47 9.613860219333 11.093545641590 0.2572
48 10.266113358824 11.514617036642 0.2560
49 9.267168823956 12.209464816665 0.2754
0 9.700150790108 11.324830491763 0.2757
1 9.908111747372 9.589064291388 0.2655
2 7.943702863859 10.267691124322 0.2738
3 8.485541371327 8.583314506199 0.2887
4 10.484027106175 9.629020363405 0.2890
5 7.984783554746 9.756963722895 0.2824
6 11.611957612532 10.061043925085 0.2865
7 9.674539931143 10.437464393386 0.2598
8 10.751872281574 9.566526039917 0.2677
9 11.556932632918 10.496279399643 0.2722
10 7.876397485669 9.263904463805 0.2892
11 8.412963337293 9.109524797119 0.2707
145 9.102663345412 9.341829579834 0.2516
28 11.364223336038 9.239775760671 0.2879
23 10.004370664616 8.838960791699 0.2858
29 8.388472452988 11.880395394825 0.2898
30 9.038532978589 8.679095106865 0.2878
24 9.716029910626 11.947385251610 0.2735
31 8.839747152688 9.419128444125 0.2525
32 9.114506404801 9.962577808626 0.2617
33 9.656130629786 9.902622149146 0.2785
34 8.118072169219 10.740270694238 0.2611
35 9.307215758779 9.409076943994 0.2507
36 9.725748914257 9.219347881998 0.2584
146 9.767520695024 8.942455904812 0.2738
147 8.782894397888 11.133340725627 0.2603
148 8.619966130524 8.893593219687 0.2765
149 7.804879486143 11.095918008639 0.2878
202

-2 0.0 0.0 0.00000001 0.0 0.0
-1 20.000000 20.000000 0.00000001 0.0 0.0
62 11.149773257299 10.853963350004 0.2729
125 10.198773422573 8.671059604021 0.2696
63 8.819909631741 10.863749016149 0.2729
126 9.514900698159 10.790602206543 0.2674
64 11.520980654670 10.971519675005 0.2890
127 10.134903244789 10.748334674857 0.2688
65 9.864293775068 10.526277982024 0.2877
66 10.939889362723 9.889519291654 0.2688
128 10.225456901151 8.363612136260 0.2800
67 10.275100986103 9.709940859720 0.2642
25 9.518758270611 10.580805160207 0.2583
129 8.808451138206 11.583266834720 0.2873
68 10.662279026992 8.543336135438 0.2830
69 8.075867726649 10.014533639095 0.2820
130 8.595356267677 10.877831176137 0.2530
175 9.428538743610 10.385530009858 0.2567
70 8.282459203895 9.879127088896 0.2847
131 8.974092792588 9.781538639341 0.2584
132 9.946409692486 10.884346562095 0.2625
71 8.383473364706 10.117388002628 0.2583
176 9.289981848469 9.179218867056 0.2695
133 9.099073489077 9.044052194489 0.2777
72 8.815829916805 10.635973456594 0.2673
177 9.131213510186 11.181954125580 0.2626
73 10.146721964760 12.199728731894 0.2816
134 10.853024599821 10.979626991100 0.2805
26 9.442492414306 11.266753836264 0.2704
178 9.141373789003 10.653188165899 0.2502
135 10.042923671395 10.323998924524 0.2854
74 9.260925519227 11.380919378454 0.2569
27 10.242782725556 10.419480593616 0.2659
179 11.189485590941 10.323906741254 0.2778
136 10.000309302481 11.487343987911 0.2566
50 8.599004971987 10.634593604501 0.2873
28 11.362195771519 9.222303174242 0.2879
180 9.565919733030 9.088390158771 0.2553
51 10.312873816007 8.916548911456 0.2822
29 8.385354202795 11.888516192739 0.2898
181 11.032309113559 11.173962162299 0.2850
52 8.353852709488 10.353501839613 0.2833
30 9.052814840726 8.670090895272 0.2878
31 8.849966585094 9.384736215891 0.2525
182 9.396792174577 10.177106543650 0.2624
53 9.691881717454 10.699796655156 0.2784
183 8.965581566729 11.790880936057 0.2798
32 9.110526415490 9.942601848688 0.2617
33 9.670974910037 9.907468118232 0.2785
184 8.555726898135 11.615294436858 0.2731
54 9.832363548181 10.285938079710 0.2864
185 10.432003118086 9.136741190359 0.2740
34 8.132043449587 10.718312825853 0.2611
35 9.321511291780 9.436091822371 0.2507
186 9.195830104254 9.748585440889 0.2854
55 10.295414860734 10.612291605462 0.2548
187 10.731263369867 11.243032771241 0.2608
36 9.761947460402 9.238499053126 0.2584
37 8.629452890741 11.329260098109 0.2820
188 10.637710559211 12.060767717556 0.2877
56 9.384427924541 8.283568062068 0.2880
38 8.460697568677 11.124236355966 0.2896
189 10.261876512847 9.438263968680 0.2795
57 8.041791917249 11.533504902848 0.2824
39 9.580955553637 9.463075030096 0.2844
190 8.127033547888 11.055707509058 0.2777
191 9.406016270048 9.624865832377 0.2653
40 10.393384195698 10.181490764724 0.2826
58 9.250163603894 11.918208705905 0.2865
192 8.874675514197 9.161642522634 0.2659
41 9.797578228175 8.346480812552 0.2791
59 9.345463704586 8.637556973549 0.2715
42 10.922331432369 10.204493957236 0.2612
193 10.074469138049 11.102492871599 0.2727
194 11.232252924316 10.610136993673 0.2798
43 9.794109084634 9.436711572219 0.2626
60 8.126333917767 10.386299012350 0.2710
44 9.761772597613 8.629712710516 0.2702
195 10.666031447169 10.291520085133 0.2641
45 8.438163193628 9.636402006291 0.2671
196 8.998523537748 11.005406379632 0.2561
61 10.725445094214 11.523687192056 0.2879
46 10.558127085145 10.064987406838 0.2871
197 9.695425017039 12.234742485038 0.2813
87 9.334823444351 10.726301178806 0.2603
47 9.623451853128 11.123612804432 0.2572
198 10.566081291517 11.028553477430 0.2625
199 9.541787334140 8.793221978550 0.2662
48 10.251178692409 11.525904009028 0.2560
88 11.159898257701 9.851364696676 0.2533
137 7.902079854359 10.627537056759 0.2825
49 9.267960316050 12.216574346452 0.2754
89 9.811954811219 9.737619499125 0.2573
12 9.052692310647 10.486252224910 0.2651
138 9.912340050502 10.704900270490 0.2520
90 9.538755652335 10.035720082135 0.2740
139 10.196471590049 11.846098391113 0.2839
13 9.871065780033 9.934778591790 0.2650
91 8.903923727487 8.371130548728 0.2829
140 8.529656061424 9.840519285357 0.2758
14 11.083164452160 8.823975114912 0.2891
92 8.671578677228 9.554984890642 0.2610
15 10.468931183869 10.391588390694 0.2793
141 8.152755090317 9.509891746041 0.2600
93 9.298808101056 11.071706067757 0.2566
16 8.386518840472 10.605766626988 0.2500
142 9.022072788177 10.306256717315 0.2547
94 9.565761656944 10.234501818350 0.2822
143 9.135287934031 9.535590294201 0.2614
17 10.856244039228 9.070075420385 0.2863
95 10.472569547533 11.744188095173 0.2895
18 8.135428775029 8.917359484831 0.2785
144 9.773468910420 11.567424410766 0.2634
96 9.183247538266 10.905830156712 0.2535
145 9.104143230526 9.332313124091 0.2516
19 9.278211417909 10.521752797049 0.2746
97 10.995475964188 9.362610490463 0.2768
20 10.043743436086 9.789676724341 0.2501
146 9.775877314371 8.935938414769 0.2738
98 10.948490290841 10.442528640266 0.2740
21 7.658540454169 9.726793043702 0.2891
147 8.759094055882 11.104615943203 0.2603
99 8.999487805496 10.750465576879 0.2565
148 8.616023605322 8.906083323089 0.2765
22 8.333449312197 10.877166570651 0.2803
75 11.071623133236 9.594296108010 0.2880
149 7.811292894813 11.100554108268 0.2878
23 10.006095505614 8.823348898819 0.2858
76 8.962522648984 9.579224239322 0.2537
24 9.710714374444 11.920582015626 0.2735
162 9.958246237905 9.105962670472 0.2658
77 9.274488598313 10.341643084481 0.2703
0 9.701911872714 11.351675643090 0.2757
163 10.350440772203 11.120746078617 0.2614
78 10.404847637323 10.847313390834 0.2508
164 8.581489938448 10.376558115116 0.2893
1 9.913492862963 9.580704248273 0.2655
79 11.260064382275 11.371443909028 0.2900
165 9.941501491581 11.783491071987 0.2795
2 7.921163462895 10.240625100768 0.2738
80 8.748185238403 9.970735573896 0.2577
166 10.872908092647 10.710927511765 0.2614
3 8.493758413264 8.585927770565 0.2887
167 7.650171924384 10.170267705705 0.2592
4 10.514538783421 9.607969741004 0.2890
81 10.007220837506 9.335659606436 0.2668
168 7.603498710575 10.636607557839 0.2836
5 7.987039330880 9.754165948205 0.2824
82 9.736116447794 10.870722817167 0.2663
169 9.322551660843 9.971890474162 0.2752
6 11.614364534573 10.056162694508 0.2865
83 9.519566868914 11.491151338639 0.2720
7 9.654185207653 10.447558394743 0.2598
170 10.472191869145 9.850880965088 0.2614
84 9.929705514172 11.265966526460 0.2580
171 8.809122061040 10.434019595787 0.2705
8 10.758044813066 9.565580126754 0.2677
85 10.293932579510 9.969589600770 0.2649
172 9.050006017214 11.458560891267 0.2567
9 11.558711135003 10.498534008206 0.2722
86 9.515995085795 9.295924035630 0.2546
173 9.279053164352 11.627494488799 0.2724
10 7.878786562937 9.270057774715 0.2892
150 9.342792506150 8.957900451700 0.2667
11 8.412519665636 9.116471208531 0.2707
174 8.763217215133 9.750264535623 0.2668
151 10.682515928856 9.287584804460 0.2568
152 10.698176247051 9.779896297910 0.2637
153 8.797846165086 12.091687023639 0.2771
154 10.113826653990 9.565257852940 0.2583
155 9.499438356113 11.765914753540 0.2619
156 10.780348696798 10.031424580897 0.2505
157 9.750280907221 10.085700211042 0.2533
158 11.453021076758 9.650145187333 0.2720
159 10.222304713759 11.318454441000 0.2811
160 10.726179677462 10.538642075336 0.2771
161 10.065446078474 10.549834481759 0.2641
112 10.478783193989 9.380629208577 0.2626
113 8.348878819778 9.364228274104 0.2822
114 10.103154592737 9.964978390366 0.2509
115 8.305015798910 11.360527950529 0.2758
116 8.881272668355 8.876962382740 0.2778
117 9.834574023869 11.076230791729 0.2604
118 9.420789225822 9.823948529787 0.2609
119 8.602177143179 10.131542833136 0.2714
120 10.646486270521 10.810985198587 0.2633
121 8.629661002248 9.290916843883 0.2774
122 9.134491286468 10.148510142917 0.2535
123 10.986510892119 11.707530864306 0.2847
124 10.592460071504 8.869439401547 0.2829
100 11.261803010302 10.092749658897 0.2612
101 8.930902974711 10.020220685125 0.2599
102 8.917030049022 11.260721584299 0.2565
103 9.635754180230 9.696899600123 0.2510
104 9.997907843950 10.095026199554 0.2705
105 10.186012565967 9.196236950355 0.2560
106 9.482658951921 10.994820161936 0.2678
107 10.509868170806 10.611482514249 0.2601
108 10.495388304116 11.352399340083 0.2860
109 8.808111430071 10.223844920328 0.2782
110 10.203563140561 10.953468576627 0.2534
111 10.204785195931 10.191894669860 0.2571
202

-2 0.0 0.0 0.00000001 0.0 0.0
-1 20.000000 20.000000 0.00000001 0.0 0.0
25 9.522148035493 10.608382182915 0.2583
62 11.157222042846 10.834564595313 0.2729
87 9.313865413509 10.738439624673 0.2603
26 9.429075340427 11.274847080749 0.2704
63 8.781409946869 10.861754844341 0.2729
88 11.140896304903 9.825915709108 0.2533
27 10.247885044961 10.425545687885 0.2659
64 11.514295515309 10.955055109074 0.2890
89 9.810003591753 9.743014431623 0.2573
28 11.360338103082 9.207828931966 0.2879
90 9.534093106066 10.044992824536 0.2740
65 9.862286999125 10.514272032344 0.2877
66 10.922067995081 9.849489747257 0.2688
91 8.910600741621 8.368386274529 0.2829
67 10.272897160545 9.714165405048 0.2642
29 8.360397483929 11.891614044561 0.2898
68 10.647342227774 8.555681833739 0.2830
92 8.680812060015 9.556211752134 0.2610
30 9.057434695966 8.665759506322 0.2878
69 8.138781849318 10.060404501376 0.2820
93 9.266655896544 11.082388347838 0.2566
31 8.852452028396 9.376556551029 0.2525
70 8.259347065933 9.825597620163 0.2847
94 9.580607094539 10.235200554279 0.2822
32 9.110457668546 9.952613405284 0.2617
71 8.437835519258 10.031381150841 0.2583
95 10.464162476278 11.728822603424 0.2895
33 9.654951812531 9.908775092574 0.2785
72 8.795957054056 10.631692790058 0.2673
96 9.167181493316 10.890247442969 0.2535
34 8.150849487156 10.677569794416 0.2611
97 10.939837828907 9.338451486436 0.2768
73 10.164395379027 12.191716212950 0.2816
35 9.325324295722 9.432765168779 0.2507
74 9.222657367703 11.347390214103 0.2569
98 10.947088818958 10.426957465245 0.2740
36 9.763299162710 9.231333590114 0.2584
99 8.975839384344 10.743046880924 0.2565
50 8.559922802175 10.718195455068 0.2873
51 10.289112387862 8.920273191314 0.2822
75 11.140549570562 9.540920146211 0.2880
37 8.608447353149 11.272307465320 0.2820
76 8.958543471680 9.585027141128 0.2537
52 8.379437240019 10.285147544920 0.2833
38 8.287813835203 11.149457287831 0.2896
53 9.700531355705 10.697124355304 0.2784
77 9.270611445949 10.351899330391 0.2703
39 9.571077379816 9.466079721833 0.2844
54 9.825368441619 10.291804078229 0.2864
78 10.406038342288 10.837415473795 0.2508
40 10.395127278699 10.186170770947 0.2826
55 10.291181878283 10.615699394119 0.2548
79 11.273019830895 11.357906184299 0.2900
41 9.794624197925 8.350569541224 0.2791
80 8.738917296304 9.976245116880 0.2577
56 9.389390224497 8.283275729559 0.2880
42 10.918096202014 10.181971725659 0.2612
81 10.015019301060 9.327078270817 0.2668
57 8.029146575501 11.506716705274 0.2824
43 9.783517287850 9.435763005134 0.2626
58 9.280650605152 11.930302781051 0.2865
82 9.711336395882 10.887691111321 0.2663
44 9.765210663386 8.637720050949 0.2702
59 9.350138372798 8.639342523650 0.2715
83 9.531331367627 11.481013505571 0.2720
45 8.463321128377 9.582239325661 0.2671
60 8.152157486339 10.368975066113 0.2710
84 9.909420278428 11.192790724249 0.2580
46 10.549319787313 10.059166117372 0.2871
85 10.284874045981 9.970351737945 0.2649
61 10.738320562057 11.503416219050 0.2879
47 9.599864337150 11.139071825179 0.2572
86 9.516801095069 9.299485458776 0.2546
175 9.479868945100 10.414762789824 0.2567
48 10.204315624910 11.537598667929 0.2560
176 9.296067876608 9.188508554320 0.2695
12 9.071108502921 10.476234699621 0.2651
49 9.288220949849 12.236662861034 0.2754
13 9.878544591502 9.921382098446 0.2650
177 9.076750797663 11.164136039003 0.2626
0 9.722987223763 11.356925468449 0.2757
14 11.084169488242 8.811434490980 0.2891
178 9.125845143988 10.637524131403 0.2502
1 9.911708974449 9.576123767460 0.2655
15 10.466954869261 10.392840231139 0.2793
179 11.179477322757 10.294553056487 0.2778
2 7.926781178261 10.203619600159 0.2738
180 9.570346206880 9.081690390726 0.2553
16 8.395250780038 10.532976487179 0.2500
3 8.505148159792 8.581843236074 0.2887
181 11.033012344931 11.174022108370 0.2850
17 10.851659804206 9.086553318161 0.2863
4 10.490946461417 9.596830631208 0.2890
182 9.405153511528 10.204863662662 0.2624
18 8.135692433417 8.891319014951 0.2785
5 7.987541919897 9.763562004603 0.2824
19 9.284329725343 10.528943811587 0.2746
183 9.021185091919 11.811111163929 0.2798
6 11.598814570253 10.070457845043 0.2865
184 8.571693345164 11.610968002374 0.2731
20 10.053915673364 9.799086038120 0.2501
185 10.472896209065 9.102833796729 0.2740
21 7.686996194214 9.734917918869 0.2891
7 9.672292841916 10.459617922311 0.2598
186 9.196653100613 9.736729675796 0.2854
22 8.346084715644 10.853559432136 0.2803
8 10.786509714834 9.586158861326 0.2677
23 10.004261955311 8.813117283204 0.2858
187 10.728374567089 11.202942435250 0.2608
9 11.554749670042 10.487462540775 0.2722
188 10.645390503250 12.034531958255 0.2877
24 9.713111931888 11.909673361625 0.2735
10 7.853716633501 9.276252066354 0.2892
189 10.247788542761 9.464648628042 0.2795
162 9.979355629172 9.097796335991 0.2658
11 8.451567690118 9.109767642752 0.2707
163 10.388662173892 11.132651961300 0.2614
190 8.069632706905 10.970702920179 0.2777
150 9.343088958799 8.963905361803 0.2667
191 9.421471123666 9.629567273614 0.2653
164 8.606129895802 10.432453178503 0.2893
151 10.647317017789 9.383647868111 0.2568
165 9.941037821930 11.761143667256 0.2795
192 8.884937022923 9.161130200227 0.2659
152 10.677740245897 9.781193147344 0.2637
166 10.884558556893 10.695071773874 0.2614
193 10.096957974092 11.093465419963 0.2727
153 8.799717515361 12.099571316543 0.2771
167 7.650583114729 10.165328616506 0.2592
194 11.236883192324 10.575603299715 0.2798
154 10.085260766874 9.580964534272 0.2583
168 7.627942174528 10.634292124739 0.2836
195 10.664870880713 10.279570966980 0.2641
155 9.492028392669 11.757332875278 0.2619
169 9.323501711345 9.957214895996 0.2752
196 8.979550705375 10.984466861147 0.2561
156 10.772255009506 10.023931929983 0.2505
197 9.728210861808 12.217882531664 0.2813
170 10.449491346174 9.849867142614 0.2614
157 9.731352107228 10.085224995029 0.2533
171 8.861615430875 10.443507896818 0.2705
198 10.572440848062 11.003819893434 0.2625
158 11.493448382398 9.662456990516 0.2720
199 9.538576533150 8.796396580261 0.2662
172 9.052589435940 11.487521067847 0.2567
159 10.243112147363 11.317841467352 0.2811
112 10.425694418417 9.342330454526 0.2626
173 9.305464730338 11.578846751627 0.2724
160 10.726506710228 10.522593523485 0.2771
113 8.270387570175 9.302924017851 0.2822
174 8.782429369942 9.770859399737 0.2668
161 10.064193790447 10.558775309450 0.2641
100 11.247031279390 10.060516453281 0.2612
114 10.108276225802 9.978189723647 0.2509
115 8.369579238950 11.390392581238 0.2758
101 8.915047389126 10.037502585340 0.2599
137 7.920499132998 10.568916262761 0.2825
102 8.887510636699 11.319996078039 0.2565
116 8.898584610990 8.877725880105 0.2778
138 9.899079213628 10.721042203760 0.2520
117 9.786659072310 11.056465434337 0.2604
125 10.214027803489 8.668062656150 0.2696
118 9.424453288305 9.815279855321 0.2609
139 10.185437193723 11.849472532537 0.2839
119 8.611919351473 10.162683655749 0.2714
103 9.635214895850 9.692832287870 0.2510
120 10.655425219118 10.789867836422 0.2633
104 9.981700435773 10.108072369365 0.2705
121 8.627696088917 9.297086769300 0.2774
105 10.198299377944 9.197181617193 0.2560
122 9.167445787519 10.133501237491 0.2535
106 9.460980146441 11.002929965881 0.2678
123 10.984326828611 11.690710772016 0.2847
124 10.619563508001 8.889494334442 0.2829
107 10.504113039363 10.621358640365 0.2601
108 10.507458359118 11.384680750192 0.2860
140 8.536660548513 9.804349704648 0.2758
109 8.813644567688 10.233673156721 0.2782
141 8.180082451599 9.530838357813 0.2600
110 10.228057256359 10.948893436174 0.2534
142 9.033616526182 10.264031687247 0.2547
111 10.201501984687 10.201102825832 0.2571
143 9.142485402685 9.553084393677 0.2614
144 9.797881051816 11.557285072398 0.2634
126 9.503942605385 10.820960354023 0.2674
145 9.101664647781 9.342659908678 0.2516
127 10.140926501140 10.766361232860 0.2688
146 9.774970119404 8.948798495697 0.2738
128 10.213658152906 8.349422941032 0.2800
147 8.783798479870 11.127688277708 0.2603
129 8.817595883979 11.647118932663 0.2873
148 8.627574638893 8.900580666462 0.2765
130 8.572636165553 10.963161056692 0.2530
131 8.966929077202 9.811758597680 0.2584
149 7.775999972127 11.086003852774 0.2878
132 9.955325343556 10.901815931547 0.2625
133 9.105946121520 9.056127431859 0.2777
134 10.875410358572 10.966957714209 0.2805
135 10.034368025035 10.343069312063 0.2854
136 10.002094462442 11.398722286581 0.2566
202

-2 0.0 0.0 0.00000001 0.0 0.0
-1 20.000000 20.000000 0.00000001 0.0 0.0
25 9.504416246774 10.595543945407 0.2583
62 11.178190388448 10.827745543299 0.2729
63 8.808916324810 10.849021236539 0.2729
175 9.440818830801 10.398958404878 0.2567
64 11.477987953182 10.979531523085 0.2890
26 9.468432962334 11.289842473146 0.2704
176 9.285554314210 9.163907292806 0.2695
65 9.909366223106 10.510807156837 0.2877
27 10.229850667787 10.439212507750 0.2659
66 10.904000732572 9.808712972775 0.2688
28 11.369242862750 9.235619011772 0.2879
177 9.090875952530 11.127137958870 0.2626
67 10.261426676397 9.723500553268 0.2642
178 9.176862322915 10.647496361700 0.2502
68 10.660858973482 8.541339599816 0.2830
29 8.353718043342 11.819841791561 0.2898
179 11.219363018978 10.229119473735 0.2778
69 8.127503323406 9.955659720424 0.2820
30 9.034422839143 8.666709320133 0.2878
180 9.568103275256 9.092726424894 0.2553
31 8.905489060996 9.410900024427 0.2525
70 8.208710422620 9.697325467993 0.2847
71 8.445666457496 9.932517083005 0.2583
32 9.101145391041 9.971226566255 0.2617
72 8.764702121145 10.644354287546 0.2673
33 9.638220410574 9.892863532066 0.2785
181 10.975868611733 11.214446206258 0.2850
73 10.112608860737 12.212820900168 0.2816
34 8.326915498129 10.643956008111 0.2611
182 9.388550832566 10.174981134937 0.2624
35 9.329988569802 9.445927237793 0.2507
74 9.240880726686 11.326756663269 0.2569
183 8.999978259088 11.789516787576 0.2798
36 9.762538131364 9.225710291482 0.2584
50 8.518567945196 10.770724222359 0.2873
184 8.558408198530 11.567526412320 0.2731
51 10.292212279554 8.909811470502 0.2822
37 8.681000476152 11.302015244242 0.2820
185 10.469258288410 9.099944969903 0.2740
38 8.187293250446 11.191994283271 0.2896
52 8.275028866655 10.153682743405 0.2833
186 9.169716488944 9.771816865137 0.2854
53 9.706668426630 10.661587992830 0.2784
39 9.567399510629 9.460274517516 0.2844
187 10.541952515455 11.262385735271 0.2608
54 9.819056179278 10.294661509122 0.2864
40 10.372915641159 10.173330718886 0.2826
188 10.593607912119 12.059905539207 0.2877
41 9.788811057766 8.328714313717 0.2791
55 10.337747341356 10.622172005391 0.2548
189 10.226259303895 9.455029328580 0.2795
56 9.368887730210 8.278999169032 0.2880
42 10.900973415655 10.186895811913 0.2612
190 8.032671812273 10.940308110578 0.2777
57 8.029207660445 11.494822722356 0.2824
43 9.786015141144 9.423835903177 0.2626
191 9.368229467441 9.643406136343 0.2653
58 9.263533333501 11.903075640100 0.2865
44 9.768857124047 8.619275691819 0.2702
192 8.987544075551 9.189720139197 0.2659
59 9.339191591801 8.629901051864 0.2715
45 8.610283024600 9.436247198360 0.2671
193 10.190161791319 11.132151559878 0.2727
46 10.547078386288 10.048849638720 0.2871
60 8.110129879726 10.472614278252 0.2710
194 11.264429826582 10.523565078211 0.2798
47 9.621421377461 11.124343960233 0.2572
61 10.813908346563 11.451844103372 0.2879
195 10.674685447915 10.256529731842 0.2641
48 10.128391368401 11.553338253565 0.2560
87 9.370306054623 10.758478164078 0.2603
88 11.150982173569 9.772659094409 0.2533
49 9.211442875769 12.217835110980 0.2754
196 9.002939836892 10.924498412935 0.2561
89 9.804722361921 9.738981723835 0.2573
12 9.055672134540 10.476523799310 0.2651
197 9.658444082405 12.257393891907 0.2813
13 9.859164607210 9.931846740827 0.2650
90 9.547432091684 10.050629577358 0.2740
198 10.675171204042 11.022367006695 0.2625
14 11.098301610291 8.824573320162 0.2891
91 8.888367250498 8.376279209685 0.2829
15 10.472749569155 10.384901266658 0.2793
92 8.734565973563 9.599169158000 0.2610
199 9.545891770992 8.767717114528 0.2662
16 8.386241863235 10.389657752379 0.2500
93 9.288867838505 11.075427064415 0.2566
162 9.968722989192 9.082376044254 0.2658
17 10.839744170516 9.062254123197 0.2863
94 9.565470398701 10.254142721279 0.2822
163 10.453074434322 11.064308531559 0.2614
95 10.400623411687 11.766580053956 0.2895
18 8.116969515157 8.892614868243 0.2785
164 8.587315592168 10.479420650595 0.2893
96 9.205070520337 10.870813263721 0.2535
19 9.283681982536 10.534714383615 0.2746
165 9.858165493933 11.783319765214 0.2795
20 10.020955370531 9.800344983657 0.2501
97 10.908360216434 9.314404316670 0.2768
166 10.906842618523 10.680444416024 0.2614
21 7.614774655547 9.846781507297 0.2891
98 10.992495823958 10.426817272105 0.2740
167 7.746699241843 10.207217133315 0.2592
99 8.997456250141 10.697750581860 0.2565
22 8.348336451599 10.936245050724 0.2803
168 7.621908061947 10.579939156956 0.2836
75 11.128600030658 9.488176048045 0.2880
23 10.001455419840 8.804946014986 0.2858
169 9.307947719380 9.973312046809 0.2752
24 9.664666192309 11.953490378852 0.2735
76 8.937354565908 9.678176407425 0.2537
0 9.764676235590 11.314419053281 0.2757
77 9.257749798821 10.334576789501 0.2703
170 10.449054216168 9.848790598692 0.2614
1 9.903165385652 9.567601499561 0.2655
78 10.445785933959 10.822645521732 0.2508
79 11.294136326674 11.375898656034 0.2900
2 8.009360073194 10.210588181995 0.2738
171 8.837216466133 10.476934583768 0.2705
3 8.489188781397 8.603642048484 0.2887
80 8.648835568299 10.023039390191 0.2577
172 9.103130765946 11.499933390601 0.2567
4 10.473100407926 9.593943360514 0.2890
81 10.007456495902 9.320460419551 0.2668
173 9.359766208900 11.542374638775 0.2724
82 9.715059215566 10.865177859486 0.2663
5 7.938611159531 9.713967996641 0.2824
174 8.710662197777 9.830495149227 0.2668
83 9.615126742364 11.495740297553 0.2720
6 11.557034037771 10.090782155688 0.2865
150 9.376251581357 8.960320509822 0.2667
7 9.672599248892 10.443819763195 0.2598
84 9.971083291713 11.129364617932 0.2580
151 10.622262971812 9.375770156237 0.2568
8 10.769975982764 9.569434739031 0.2677
85 10.271833381725 9.970027890567 0.2649
152 10.668632024931 9.770056026990 0.2637
86 9.499574101464 9.305761649673 0.2546
9 11.595467381233 10.532363098031 0.2722
153 8.753407170440 12.060513786351 0.2771
10 7.816103231996 9.337254741782 0.2892
112 10.405590323334 9.335036345148 0.2626
154 10.086439881048 9.599808198239 0.2583
113 8.183628843553 9.240803468245 0.2822
11 8.479772127242 9.159201517598 0.2707
155 9.479950285225 11.749303681149 0.2619
100 11.104330153175 10.012722390916 0.2612
114 10.079870057403 9.978277539996 0.2509
156 10.756495938418 10.004668760204 0.2505
115 8.434155664581 11.291885106213 0.2758
101 8.848568113642 10.071169925649 0.2599
157 9.748468227318 10.103914556024 0.2533
116 8.875004229269 8.892433610760 0.2778
102 8.953213585626 11.311643989325 0.2565
158 11.485272068150 9.712250715965 0.2720
117 9.785702576391 11.045252493315 0.2604
103 9.625198812196 9.670606544840 0.2510
125 10.205584653407 8.656673319854 0.2696
104 9.991102347527 10.119562354954 0.2705
159 10.301433952092 11.360516346013 0.2811
105 10.187613319404 9.181395365720 0.2560
118 9.429621663999 9.829246682970 0.2609
106 9.460030961422 11.011795913312 0.2678
160 10.767405842917 10.507472211393 0.2771
107 10.543786688624 10.594438744587 0.2601
161 10.106199370427 10.596899755087 0.2641
119 8.538136796474 10.211675697657 0.2714
108 10.542232073827 11.540281649019 0.2860
137 7.967188489041 10.664771123700 0.2825
120 10.675776127801 10.795664929657 0.2633
138 9.903419104004 10.735063043279 0.2520
109 8.741439836387 10.289710358176 0.2782
121 8.733097965153 9.221224387628 0.2774
139 10.115912285227 11.864617492418 0.2839
110 10.245725940794 10.934663571669 0.2534
122 9.161373112689 10.132562527385 0.2535
140 8.482557226405 9.681187986364 0.2758
111 10.188600764731 10.208600516380 0.2571
123 10.962374653200 11.763773602777 0.2847
141 8.317555061614 9.470010475152 0.2600
124 10.602189358930 8.869830875831 0.2829
142 8.987043061831 10.243576567283 0.2547
143 9.108011518753 9.573336245738 0.2614
126 9.538591474154 10.810571813547 0.2674
144 9.855781915871 11.520480901677 0.2634
127 10.192192002780 10.757973068904 0.2688
145 9.140170523967 9.365768843202 0.2516
128 10.221561564401 8.345442568908 0.2800
146 9.766111992059 8.939017423403 0.2738
129 8.830908546807 11.614160029189 0.2873
147 8.834007104960 11.112937283208 0.2603
130 8.627343811683 10.997018659088 0.2530
148 8.594802150499 8.916370200758 0.2765
131 8.950512532423 9.865551589582 0.2584
149 7.699832874735 11.091300741535 0.2878
132 10.001191974413 10.896399465072 0.2625
133 9.120434849189 8.983252482669 0.2777
134 10.944760450138 10.959620977986 0.2805
135 10.057943335369 10.344110663392 0.2854
136 10.055508981675 11.343091911959 0.2566
202

-2 0.0 0.0 0.00000001 0.0 0.0
-1 20.000000 20.000000 0.00000001 0.0 0.0
125 10.201407847338 8.666649650144 0.2696
126 9.603114988018 10.808142321934 0.2674
62 11.170560004429 10.838389906397 0.2729
162 9.954354693611 9.103629900968 0.2658
175 9.431232282904 10.376445590847 0.2567
127 10.175696414519 10.715551140846 0.2688
63 8.745824699873 10.852349850070 0.2729
176 9.237951020997 9.160085175123 0.2695
163 10.474157283249 11.031985142369 0.2614
128 10.220396078769 8.358666855156 0.2800
64 11.476393597687 10.983909998429 0.2890
177 9.102022400543 11.044739384901 0.2626
129 8.881905777927 11.579058999556 0.2873
164 8.529196337788 10.585138040596 0.2893
65 9.891044081998 10.481025750411 0.2877
178 9.187806813306 10.676826240407 0.2502
130 8.618697321841 11.040861348739 0.2530
165 9.799902042660 11.775165341672 0.2795
66 10.909788728902 9.782486237075 0.2688
179 11.268226933566 10.168313612785 0.2778
131 8.884549671849 9.922309986293 0.2584
166 10.838268278946 10.702564097893 0.2614
180 9.552014900549 9.077710199816 0.2553
67 10.245310836253 9.715501470981 0.2642
167 7.717995063331 10.179816244898 0.2592
132 9.997646033985 10.870055466985 0.2625
181 10.972023229001 11.227893931412 0.2850
68 10.654348677425 8.545299897249 0.2830
168 7.635667152409 10.586452123867 0.2836
133 9.063222193587 9.007170184916 0.2777
69 8.129402132572 9.879252209617 0.2820
182 9.380681733609 10.192874280404 0.2624
169 9.307852322095 9.980967140484 0.2752
134 10.953484246293 10.953294643533 0.2805
183 8.973212184490 11.797986033656 0.2798
70 8.220055889750 9.516124133973 0.2847
135 10.053198999543 10.318857138980 0.2854
170 10.433896889821 9.836411926508 0.2614
71 8.410033632393 9.953258869932 0.2583
184 8.587759963876 11.560012204924 0.2731
171 8.829743787136 10.459402203591 0.2705
136 10.027118072920 11.297726122509 0.2566
72 8.766468705039 10.638461160627 0.2673
185 10.460060918152 9.106590673287 0.2740
172 9.124537386217 11.477609481764 0.2567
137 7.976490435658 10.612837803360 0.2825
186 9.176458942341 9.777127875092 0.2854
73 10.092293944065 12.193459538505 0.2816
173 9.366943600798 11.470319460427 0.2724
138 9.921850255677 10.708391691064 0.2520
74 9.245130271492 11.252588704178 0.2569
187 10.507386540230 11.255254118193 0.2608
139 10.063341385537 11.858736106744 0.2839
174 8.628446343224 9.866634329757 0.2668
50 8.464191342421 10.833704035216 0.2873
188 10.562640520535 12.045959742674 0.2877
140 8.419797962989 9.703580847958 0.2758
150 9.323844439590 8.957698349246 0.2667
189 10.231636863108 9.466661974403 0.2795
51 10.285616250980 8.919341514457 0.2822
141 8.542008163425 9.522102880958 0.2600
151 10.614123904613 9.371456029976 0.2568
52 8.222181672439 10.141349423096 0.2833
190 8.048062232996 10.885517609407 0.2777
152 10.667302662029 9.775144839975 0.2637
142 8.991728242636 10.298253596424 0.2547
53 9.730686813792 10.636132729486 0.2784
191 9.345488205067 9.649915151482 0.2653
153 8.762736027922 12.062844239668 0.2771
143 9.097161308410 9.621118261531 0.2614
192 8.979796711982 9.259791599885 0.2659
54 9.802373935266 10.278567880922 0.2864
154 10.079497275145 9.571810740437 0.2583
144 9.853000851927 11.518457580880 0.2634
193 10.258595380901 11.160473351259 0.2727
55 10.355353922025 10.587276192118 0.2548
145 9.142145795063 9.414115348942 0.2516
155 9.379272564926 11.690690171308 0.2619
56 9.408857742122 8.279008825383 0.2880
194 11.283792658363 10.514085775366 0.2798
146 9.761321881900 8.941224841871 0.2738
156 10.783658158260 10.016979356248 0.2505
57 8.038223627077 11.552071608984 0.2824
195 10.662120868081 10.247976779923 0.2641
147 8.866086876233 11.079815680924 0.2603
157 9.743186529993 10.080600840929 0.2533
58 9.269103650212 11.923657714489 0.2865
196 8.985743338450 10.866469840320 0.2561
148 8.543132597514 8.901180706672 0.2765
158 11.468969658233 9.698833538000 0.2720
197 9.670626358618 12.254579881957 0.2813
59 9.344003721257 8.628356735808 0.2715
149 7.756053142429 11.094419139793 0.2878
159 10.292632386345 11.403738818470 0.2811
198 10.696976218534 11.072303542817 0.2625
60 8.144338291479 10.415347751761 0.2710
160 10.816362890331 10.466733418103 0.2771
112 10.401413177366 9.340913327753 0.2626
61 10.786830918922 11.450384970796 0.2879
199 9.529577115520 8.792371976833 0.2662
