202

166 0.918206062108 27.522496038720 0.2754
27 5.928334843780 10.773256986693 0.2653
92 0.284386288362 0.284463201195 0.2845
167 3.335874309283 22.681405961312 0.2781
77 19.683021267400 6.138633031440 0.2821
28 8.923392319714 4.610266662704 0.2547
93 6.947565053063 30.102340549271 0.2710
168 9.867427925013 16.483283486711 0.2836
78 9.404794275538 3.909661687421 0.2615
94 16.644416351334 10.699833235863 0.2533
29 12.429253507465 0.278046619640 0.2780
169 17.141050352472 11.755787032543 0.2809
79 7.431693489869 15.976076471515 0.2790
95 8.770563805850 18.866363771084 0.2538
30 13.301769411514 18.941047284298 0.2656
80 19.730296041741 12.148319110212 0.2697
170 14.096143914923 23.415576989091 0.2721
96 17.524943562236 21.177141585791 0.2556
31 19.725750771669 10.127151260966 0.2743
82 19.605841979543 21.461738300724 0.2792
171 11.432335829996 13.247089213284 0.2561
32 5.145344134157 7.027104705116 0.2532
97 19.080633038038 14.711120871066 0.2635
83 5.397226843745 15.736402522106 0.2733
172 18.665502611118 8.843638196913 0.2858
98 3.826958085696 21.342206471194 0.2794
33 19.737551945129 17.906953561975 0.2624
173 5.512127289596 5.853048515388 0.2594
84 1.395788376497 6.724554544098 0.2786
99 8.957495172647 19.828777852995 0.2754
34 2.698399244183 32.950845419553 0.2687
85 4.293245390372 1.501920078549 0.2564
174 13.488593491310 8.061496824991 0.2563
35 19.723090837872 11.101495559651 0.2769
150 12.656753343862 9.363831625346 0.2762
151 10.310422577472 7.871195749836 0.2672
152 8.444461615699 15.132139173485 0.2794
153 8.992816077547 11.036350657515 0.2657
12 6.244781398981 21.736322490863 0.2597
154 2.404172119913 22.003764719878 0.2751
36 17.848100592185 28.371486552367 0.2754
155 10.456479745997 3.172641178265 0.2621
13 6.106981445262 13.658154771440 0.2571
86 15.421012673143 1.699715810924 0.2640
37 0.911029114767 7.869991182502 0.2655
156 6.348334435318 8.612904682794 0.2829
14 18.146879213146 11.588435848589 0.2543
157 20.894485894505 28.228554016934 0.2655
38 3.264987608257 9.025507465275 0.2616
15 15.266818192723 29.536287877510 0.2752
0 17.078093762492 4.337017549565 0.2532
158 21.295779612129 24.045856169171 0.2688
39 8.950601195754 6.450238942183 0.2644
16 16.274837213616 12.438249812691 0.2527
1 1.324287267855 5.064214980742 0.2531
159 0.766269477311 3.118750075091 0.2579
40 9.189923620493 12.674226290277 0.2885
17 16.391378722572 5.438013273868 0.2865
2 14.863645068539 3.400848912614 0.2709
160 19.732038140864 9.100690869540 0.2680
41 0.267700130021 16.401645158845 0.2677
18 6.486054603023 6.878305095335 0.2651
3 15.835303386181 8.534165136197 0.2765
42 16.358146648964 22.807212812820 0.2672
161 3.107233433692 11.153605279842 0.2754
19 8.075472730132 2.865243409078 0.2511
4 12.136839117206 21.848649213797 0.2684
43 2.168647345883 3.594788953124 0.2849
5 17.129823532504 15.417217461788 0.2713
20 1.057960287615 16.923377158654 0.2728
44 19.745690967849 3.713961737971 0.2543
45 10.681225613220 4.337180327028 0.2529
21 17.484417762378 8.353716584465 0.2859
6 13.210127415649 11.226230060889 0.2741
46 16.478122775474 0.265502368707 0.2633
22 0.288405183324 23.610941311382 0.2873
7 7.792584199857 18.178582264734 0.2612
47 13.357512391574 1.217006001143 0.2556
48 0.291038641707 20.847820503211 0.2584
8 4.668674404629 8.895627870082 0.2748
23 4.234432654616 14.695380212058 0.2715
9 14.374790416496 0.251507105504 0.2515
10 17.786710013913 19.432464905916 0.2841
11 11.641876662499 5.722716802801 0.2763
201

-2 0.0 0.0 0.00000001 0.0 0.0
-1 20.000000 20.000000 0.00000001 0.0 0.0
125 12.912403077995 3.026910650972 0.2621
126 3.551237313916 0.857229007985 0.2834
127 19.726186101151 5.040267108249 0.2738
61 4.095955213258 16.753603726670 0.2533
175 5.430859243309 0.285393603926 0.2833
112 12.930402269384 2.229441679124 0.2507
128 2.047411588607 28.141264804777 0.2815
62 11.100348395452 3.863286418815 0.2502
176 0.271209977821 11.929333680161 0.2712
113 16.548515368730 28.539426081309 0.2529
129 11.971429034978 19.063216161251 0.2730
63 14.532258382866 1.343696035139 0.2631
177 2.498450575874 13.844114259401 0.2751
114 10.368516345150 17.763223320043 0.2501
130 9.787494652915 1.083620328450 0.2887
64 10.867569298622 27.333679006835 0.2856
178 11.481355984843 9.514278018566 0.2779
131 0.280379687781 9.406963915259 0.2779
115 14.690211919473 27.245514515693 0.2731
179 19.729133549905 7.942363937641 0.2704
65 12.249855474911 1.741490600958 0.2794
116 1.124649730586 0.284122333344 0.2841
132 1.902211588900 2.180684176159 0.2600
66 13.508946383452 3.549527597367 0.2593
180 4.944756329043 3.040571899507 0.2824
133 18.922730211144 1.163918747615 0.2881
117 0.266828940079 1.480301824041 0.2668
67 9.252558708360 0.251114707429 0.2511
181 2.924785761981 24.698276257469 0.2877
134 19.391750217968 3.443247836744 0.2719
118 10.210023785617 11.056463550000 0.2554
68 11.324825365115 8.502912705352 0.2764
182 14.366820294134 2.838946547610 0.2867
119 2.338030597361 20.896355566077 0.2610
135 0.283013615511 13.076606464475 0.2830
69 1.510815648585 13.098828811123 0.2820
183 19.727604782774 0.272394820747 0.2724
120 10.761727747118 22.963137156323 0.2835
136 13.058805303133 4.177550884848 0.2779
184 0.466379432485 14.097281525698 0.2674
70 2.937505484940 15.641991248811 0.2729
137 3.497362469972 9.943591058731 0.2513
121 10.007261567282 6.618622699087 0.2832
185 18.608811311973 4.683120396192 0.2775
71 4.394246113270 18.858287488624 0.2586
122 6.837964497414 22.008146132394 0.2684
138 18.291431626331 3.489646202943 0.2884
186 6.809304218204 12.589124302910 0.2788
72 4.183697530408 0.265830441788 0.2659
139 11.109344166001 20.847986796291 0.2613
123 3.388358988147 5.185162664492 0.2567
187 16.859409040288 0.262318532248 0.2624
73 7.971767501872 4.172330407839 0.2500
140 7.410184907504 0.258821495283 0.2588
124 14.168706089004 6.083578264677 0.2724
188 13.161259735753 17.663232546643 0.2895
100 3.757457335244 2.276957876827 0.2844
141 19.634907077250 14.021573803540 0.2823
189 7.401298126349 7.770099836203 0.2619
101 6.222498892410 4.524106251783 0.2521
142 8.929870814576 13.487578532776 0.2500
190 17.023024409116 5.233168648398 0.2617
143 8.040799337521 10.498793892620 0.2636
102 19.743389112416 1.487457226131 0.2566
191 12.684558837552 15.169026915581 0.2632
103 -1.151403104320 26.999800714026 0.2762
144 17.725405837675 24.432443635871 0.2609
192 10.346132741147 24.288406471081 0.2887
145 18.601387800046 19.080379757009 0.2664
104 11.046121623074 0.253177936518 0.2532
49 1.299672853515 10.623786430289 0.2545
193 11.575360118247 2.469770511581 0.2589
105 9.574009511614 15.033765462433 0.2522
146 11.635602814714 10.612391627066 0.2757
50 13.111609157148 0.253697145749 0.2537
147 2.746275395382 3.016904610695 0.2845
106 6.934687518400 1.350382648464 0.2846
194 10.814324849157 1.636391813630 0.2828
51 7.253899920387 23.629436815147 0.2877
107 12.901668042537 25.720977151079 0.2779
148 13.343797926420 10.208344763470 0.2528
195 18.922874013502 21.244298808437 0.2569
52 19.065578942967 13.272412015879 0.2537
149 19.737238786101 19.591382865236 0.2628
108 15.734624942644 4.543245601077 0.2612
53 7.708567367424 5.255838047706 0.2507
196 17.348614027510 2.830594204583 0.2760
162 5.195246375229 1.798910649392 0.2877
109 13.380956640605 20.951124137892 0.2867
54 18.312361393628 16.928968438507 0.2712
197 11.746255510429 1.169666311710 0.2822
110 0.254038078624 7.603836859195 0.2540
163 15.137516234035 13.444032679018 0.2700
198 6.752025489978 3.513989874566 0.2863
55 19.710378848457 17.179706649796 0.2850
111 19.735086385792 15.848488363738 0.2649
56 13.919928977290 4.501031461737 0.2781
199 14.647481382809 17.802140983410 0.2687
164 0.096079375597 22.898796243886 0.2868
150 12.420331458390 8.923082935192 0.2762
57 16.868283757411 6.648568509670 0.2669
24 18.387892574747 0.268632885604 0.2686
165 0.279506557589 4.896232689516 0.2795
151 10.294524404117 7.622173939662 0.2672
58 0.335416839695 19.859374471153 0.2642
25 15.990907737059 6.561847821900 0.2855
152 8.255553342332 15.686203181042 0.2794
166 0.566637361753 28.729903559241 0.2754
26 7.820754602180 1.864762788177 0.2849
59 17.337507720334 0.852708258595 0.2531
167 3.274873271433 23.215296752004 0.2781
153 9.072930804934 10.630905121631 0.2657
60 14.611846772133 19.456251040503 0.2767
27 5.992502735345 11.021267338314 0.2653
168 9.755574712229 16.528553883286 0.2836
154 2.054153855809 22.309120703462 0.2751
28 9.538527685392 4.912056520075 0.2547
87 14.302902805426 12.633414952489 0.2626
155 10.257901012535 3.398404481308 0.2621
169 16.909912683289 11.586490822277 0.2809
29 12.009483681483 0.278030346874 0.2780
88 2.186474647384 6.610547057781 0.2628
156 6.287025319936 8.741352824985 0.2829
170 14.063345419212 24.004684428982 0.2721
30 13.193296457134 19.310034079863 0.2656
89 1.906132395489 1.160353580804 0.2831
171 11.051556656698 14.104050163225 0.2561
157 21.039414233882 29.008127462465 0.2655
31 19.725748491884 10.296488321756 0.2743
90 16.139099372555 11.852647985823 0.2821
32 5.048590433605 6.439219363428 0.2532
91 11.013692728898 11.910089161076 0.2577
172 18.787323755963 9.273848554127 0.2858
92 0.284398962285 0.284466189470 0.2845
33 19.737552368536 18.121833892596 0.2624
173 5.861913629672 5.260791000431 0.2594
93 6.609252371661 31.166018218089 0.2710
34 2.146529199692 34.313242496490 0.2687
174 13.265838450111 8.328802614189 0.2563
94 16.265127270091 10.510809782365 0.2533
35 19.722910902019 11.423408674873 0.2769
12 5.817889866863 22.540028840648 0.2597
36 18.034335716054 29.462274660593 0.2754
95 9.091134708025 19.199038208430 0.2538
13 6.507482255464 14.024103955918 0.2571
37 1.202821050861 8.428097071065 0.2655
158 21.700374912717 24.566066719779 0.2688
38 3.634604052628 8.269972839103 0.2616
96 17.823707797496 21.563733419005 0.2556
159 0.584797382089 3.033088962437 0.2579
39 8.944320752546 7.029594094313 0.2644
160 19.732044429308 8.980331296823 0.2680
40 9.712400466696 12.530434406392 0.2885
161 2.943285339206 11.554600732847 0.2754
41 0.267739434561 16.187033689704 0.2677
74 18.005301152635 5.484347123621 0.2712
42 16.427957699560 23.246943894007 0.2672
75 18.271098500764 11.098611980183 0.2741
43 2.077815038905 4.041752181617 0.2849
44 19.745713959754 4.139168527314 0.2543
76 2.550808499711 0.250207891197 0.2502
45 10.415250405961 4.350955352484 0.2529
77 19.665893846617 6.238999841714 0.2821
46 15.766606550909 0.268452101922 0.2633
78 9.095809183927 3.312347228484 0.2615
47 13.449412374071 1.143278607273 0.2556
79 7.372986823000 16.048384690860 0.2790
48 -0.005071281433 21.122150230813 0.2584
80 19.730296594043 12.354148017653 0.2697
0 17.602061911647 4.112884354953 0.2532
82 19.615272174356 21.923134923992 0.2792
1 1.395888543116 5.374319866782 0.2531
83 5.235774071696 16.331779517992 0.2733
2 15.186522232798 3.087838399272 0.2709
84 1.257138673798 6.847208212787 0.2786
3 15.713277691384 8.330657521786 0.2765
85 4.517471331606 1.174411614320 0.2564
4 12.299141317175 22.246497820350 0.2684
86 15.714314355530 1.732111950272 0.2640
5 17.301571194763 15.411705824908 0.2713
6 13.134328326674 11.200398284475 0.2741
97 19.107060362163 14.766719483915 0.2635
7 8.021075257222 18.268763941516 0.2612
98 3.744497428577 21.584931114730 0.2794
8 4.319627928291 8.879577510258 0.2748
99 8.653856700998 20.735799636981 0.2754
9 14.618527441481 0.251516745347 0.2515
14 17.641373186623 12.101819447211 0.2543
10 17.714276844305 19.625040894282 0.2841
15 15.664577380906 30.380256567489 0.2752
11 11.628979453865 5.859947638855 0.2763
16 16.835489341691 12.681277236325 0.2527
17 15.718166651415 5.604339293569 0.2865
18 6.182610694942 6.745130920643 0.2651
19 7.636001782529 3.024004021838 0.2511
20 1.505534694042 17.452856539226 0.2728
21 17.372643808855 8.229066580709 0.2859
22 0.289599421671 24.544223581761 0.2873
23 4.529149078700 14.759805020150 0.2715
201

-2 0.0 0.0 0.00000001 0.0 0.0
-1 20.000000 20.000000 0.00000001 0.0 0.0
125 12.813152236759 3.255258618444 0.2621
126 3.532804071246 1.326135559744 0.2834
175 5.489974060141 0.283246834870 0.2833
176 0.271206179926 11.365329461685 0.2712
127 19.726188779724 5.637859216528 0.2738
177 2.980816848349 14.218014943836 0.2751
128 1.900431710296 29.128218418621 0.2815
178 11.241378626955 9.904448174049 0.2779
129 12.300844644062 19.289927611977 0.2730
61 4.046958028939 16.635302764189 0.2533
130 9.990236322341 1.209327513959 0.2887
179 19.728501662424 7.768691815187 0.2704
62 11.065834064834 4.321837277929 0.2502
24 17.902084156853 0.268635942039 0.2686
131 0.279080838666 9.199320209949 0.2779
180 4.496341522492 3.078620785429 0.2824
63 14.357790010292 1.995256071377 0.2631
25 15.258804301726 6.681364054793 0.2855
132 1.425841388397 2.488816315479 0.2600
181 2.949490320919 25.172401924371 0.2877
26 8.084135515405 1.742225548478 0.2849
64 10.964996617639 27.957816019327 0.2856
133 18.750915149231 1.317624227961 0.2881
182 14.785388715708 2.726447599006 0.2867
65 12.309045602290 1.716022898003 0.2794
27 6.054925242808 11.260204192105 0.2653
183 19.727602807086 0.272395694101 0.2724
134 19.198511582760 3.570662917153 0.2719
66 14.250027322071 3.473846942495 0.2593
28 9.925306100993 5.585855212166 0.2547
135 0.283017961760 13.033481143842 0.2830
184 0.493128516065 14.397572154457 0.2674
67 8.847039866425 0.251121092558 0.2511
29 11.907942125135 0.278048390167 0.2780
185 18.274124465156 5.012233193186 0.2775
136 13.053392858994 4.489786498544 0.2779
68 11.454306673116 8.308625968509 0.2764
30 13.128805214346 19.680102669449 0.2656
186 6.632514019130 12.542133225785 0.2788
137 2.979704805094 9.671180849323 0.2513
31 19.725749837905 10.231212799980 0.2743
69 2.203465616370 13.294294928477 0.2820
187 16.050602175074 0.262385563640 0.2624
138 18.751339913473 2.564457308237 0.2884
70 2.905332256063 15.613649516081 0.2729
32 4.942769087813 5.866510125980 0.2532
188 13.069539182257 18.313819369219 0.2895
139 11.165031252374 21.107254808430 0.2613
71 4.538482494742 19.073255714879 0.2586
33 19.737555665008 18.835995941298 0.2624
140 7.654662491827 0.258822066836 0.2588
189 7.834117383521 7.829318859709 0.2619
72 4.189218405069 0.265856192553 0.2659
34 1.612663562743 35.630702297462 0.2687
141 19.717736091920 14.395978405835 0.2823
73 7.875447428655 4.211111941725 0.2500
35 19.720120300950 11.676220733044 0.2769
190 16.448704545910 5.446611148183 0.2617
142 9.155969487545 13.686948036076 0.2500
49 1.063529551156 10.739245009589 0.2545
36 18.214410687790 30.516952227145 0.2754
143 8.225644469294 10.607872890780 0.2636
191 12.757139780011 15.007259090558 0.2632
37 1.500538929962 8.976634516312 0.2655
50 13.086618957577 0.253702614969 0.2537
192 10.636731998056 24.836320349695 0.2887
144 17.861842977085 24.941413618774 0.2609
51 7.242593021165 24.341645368245 0.2877
38 3.654006795091 7.341384232983 0.2616
193 11.737335252222 2.541676023339 0.2589
145 18.801316327916 19.243943807302 0.2664
52 19.278261438934 13.522117142484 0.2537
39 8.825088976928 7.612870628310 0.2644
146 11.436788623785 10.856812918248 0.2757
194 10.659897754781 2.053396408620 0.2828
40 10.038754122486 12.474551195673 0.2885
53 8.279757994104 5.441375998390 0.2507
195 18.881974918914 21.800436165202 0.2569
147 2.636846267712 2.695901823472 0.2845
54 18.048284110938 17.046588033837 0.2712
41 0.268181962110 15.976355617331 0.2677
148 12.714300567906 9.654472098206 0.2528
196 17.604083662552 2.811308562402 0.2760
55 19.692657610273 17.171295068436 0.2850
42 16.495233571733 23.671449246727 0.2672
197 11.073839678860 1.091006070989 0.2822
149 19.737240450631 19.770735324793 0.2628
43 1.510414097304 4.926929181357 0.2849
56 14.416292276382 4.429571642394 0.2781
198 6.747397656497 3.670703586804 0.2863
112 13.578502695511 2.118923436320 0.2507
44 19.745680015543 4.790636734422 0.2543
57 16.741289338109 6.634756905762 0.2669
199 14.435811969814 17.758106656268 0.2687
113 16.337507494521 29.353221337272 0.2529
45 9.983941484493 4.475351182592 0.2529
58 0.356488225488 20.536211045102 0.2642
162 4.929115992412 2.215554606828 0.2877
114 10.804092285204 17.873440109249 0.2501
46 15.298791041915 0.291291722365 0.2633
59 17.150190886962 1.057453935186 0.2531
163 15.539567090731 14.060698935815 0.2700
115 14.698645003549 27.914850985618 0.2731
60 14.728839488343 19.675730358285 0.2767
47 13.583183111044 1.180592888307 0.2556
164 -0.549734489783 24.046318232602 0.2868
116 1.556871687561 0.285097334772 0.2841
87 14.645249129471 12.869878497406 0.2626
48 -0.295252759656 21.390534744201 0.2584
117 0.267264855034 1.630632794275 0.2668
165 0.279506513092 4.785951541800 0.2795
12 5.110547844508 23.431470549057 0.2597
88 2.064084446040 6.622222028240 0.2628
118 9.904464522683 11.587852493492 0.2554
166 0.226462618203 29.897483204830 0.2754
89 2.320748437154 1.281442901820 0.2831
13 6.895063813808 14.377857178024 0.2571
167 3.217311801136 23.731502445706 0.2781
119 2.553233088446 21.432971418319 0.2610
14 17.763412338488 12.667229935816 0.2543
90 15.994970634811 12.777233538673 0.2821
168 9.646574990342 16.568785289732 0.2836
120 11.217227361787 23.792195994121 0.2835
15 16.049339231113 31.195973254334 0.2752
91 10.888545700799 12.067210221789 0.2577
169 17.114364866110 10.964624474464 0.2809
121 10.167255910355 6.557681279776 0.2832
92 0.284466537322 0.284466706009 0.2845
16 16.766967338371 13.553775365765 0.2527
122 6.749447715091 22.397516019039 0.2684
170 14.031435142543 24.573742226680 0.2721
93 6.281940295056 32.194357381078 0.2710
17 15.387772545255 5.601103058233 0.2865
123 3.597151957750 5.576084534821 0.2567
171 10.687018281910 14.930938943160 0.2561
18 5.898796953769 6.615588565536 0.2651
94 15.911503750447 10.296100221104 0.2533
124 14.355972086451 5.676057506580 0.2724
172 18.713402957777 9.726112126804 0.2858
19 7.777809588764 2.916653631819 0.2511
95 9.402277542350 19.516226094739 0.2538
100 3.699289022933 2.226262069630 0.2844
173 5.963423936704 5.079973432630 0.2594
101 5.714161114909 3.416370138023 0.2521
174 13.256441264275 8.500239944510 0.2563
96 18.020245691708 21.957783353599 0.2556
150 12.288584070183 8.583515888999 0.2762
20 1.941856864314 17.966331227717 0.2728
151 10.309565104881 7.573509760765 0.2672
97 18.929826565767 15.076315189481 0.2635
21 17.263667881834 8.107578856908 0.2859
152 8.288705026154 16.141324117143 0.2794
98 3.665794827581 21.819015588364 0.2794
153 9.235030610079 10.236279633074 0.2657
22 0.291161687239 25.446503852395 0.2873
99 8.360156952993 21.616987230387 0.2754
154 1.714449053759 22.603380434438 0.2751
23 4.814725036723 14.821085324349 0.2715
74 17.465441466425 5.754703813265 0.2712
155 9.943907578557 3.439426462212 0.2621
0 18.076514580106 3.804195596068 0.2532
75 18.050782064235 11.104294451718 0.2741
156 6.226292040730 8.866740374205 0.2829
1 1.467640800719 5.745603681336 0.2531
76 2.364004286048 0.250202832929 0.2502
157 21.179297431296 29.761573026514 0.2655
77 19.634379234504 6.509009801272 0.2821
102 19.743363152608 2.108452605681 0.2566
78 8.823075212901 2.593910875922 0.2615
158 22.091483085666 25.068534438184 0.2688
103 -1.546240257152 28.017036573483 0.2762
79 7.091327717705 16.200231190684 0.2790
104 10.769673533139 0.253156486230 0.2532
159 0.409767219921 2.950303067652 0.2579
80 19.730311280676 12.789864199769 0.2697
160 19.732036144256 8.912924583433 0.2680
105 9.803981510130 15.139432784596 0.2522
82 19.745466790174 22.488240595667 0.2792
161 2.785082080608 11.941872702268 0.2754
106 6.604902457371 1.405833662225 0.2846
2 16.022138942503 2.933909122916 0.2709
83 5.098074856516 16.904767461843 0.2733
107 12.927627636410 26.313904026271 0.2779
3 15.594530376129 8.132823447787 0.2765
108 15.607064777099 4.796077334339 0.2612
84 0.933776099476 7.009247578277 0.2786
4 12.456121515620 22.630472553916 0.2684
109 13.567563878453 21.520079473946 0.2867
85 4.781711347312 1.019922144124 0.2564
5 17.467325331932 15.405372722778 0.2713
110 0.254038207897 8.027777292982 0.2540
86 16.009419841404 1.769902632268 0.2640
6 12.939829924726 11.420674215542 0.2741
111 19.735087423766 15.824478311530 0.2649
7 8.241335182494 18.354172770349 0.2612
8 4.322286990976 9.058282854368 0.2748
9 14.172041221726 0.251517275374 0.2515
10 17.446017370035 19.946444108367 0.2841
11 11.616264256343 5.991717048471 0.2763
201

-2 0.0 0.0 0.00000001 0.0 0.0
-1 20.000000 20.000000 0.00000001 0.0 0.0
61 3.962586945508 16.513847500616 0.2533
175 5.628734658483 0.283246982106 0.2833
125 12.655546923322 3.468480038202 0.2621
62 11.153569914586 4.720152326029 0.2502
176 0.271201399915 11.004754656524 0.2712
126 3.532745957020 1.428339225935 0.2834
63 14.811648565524 1.996646533548 0.2631
177 3.458377616910 14.586456858124 0.2751
127 19.726199194327 6.156777469133 0.2738
64 11.059203806905 28.560394216942 0.2856
178 10.955063083430 10.001180708674 0.2779
128 1.758564625005 30.081748177991 0.2815
129 12.309609908808 19.449995467866 0.2730
65 12.356113895887 1.479679556234 0.2794
179 19.729571987026 8.017689395327 0.2704
130 9.811538309219 1.325856196150 0.2887
131 0.282446861222 9.182127236984 0.2779
180 4.004390275927 3.403854952921 0.2824
66 14.666859286325 3.567809405574 0.2593
132 1.071760636538 3.074438558910 0.2600
181 2.973536995851 25.630650242525 0.2877
67 8.608987203286 0.251120485322 0.2511
133 18.348891895815 0.904623874483 0.2881
134 19.288144624860 3.684860507782 0.2719
182 15.847672004840 2.684830153832 0.2867
68 11.131010653853 7.976471484384 0.2764
135 0.283336409095 12.984890586555 0.2830
183 19.727222056671 0.272395716213 0.2724
69 2.864245474216 13.473853054008 0.2820
136 12.919137497603 4.852084969406 0.2779
70 2.873529546456 15.588546151179 0.2729
184 0.520932053047 14.692651813709 0.2674
137 2.527477613407 9.410621672732 0.2513
138 19.139064621025 1.894646291567 0.2884
71 4.678272685431 19.280119313512 0.2586
185 18.002332906963 5.285652146791 0.2775
139 11.218848962920 21.356928349625 0.2613
72 4.052738380322 0.265863279182 0.2659
186 6.463406121577 12.499710157135 0.2788
140 7.736167096221 0.259724085633 0.2588
141 19.717730394302 14.863742535575 0.2823
73 7.789270291751 4.248969653073 0.2500
187 16.194106251977 0.262390253082 0.2624
142 9.370393622668 13.886547071290 0.2500
188 13.039834176819 18.878929352791 0.2895
49 1.172372874947 10.663607598089 0.2545
143 8.333057728000 10.727446673327 0.2636
144 17.993493101511 25.432649825381 0.2609
50 12.666163873004 0.253700826260 0.2537
189 7.954044467348 7.898768089585 0.2619
145 18.805675972165 19.427690579596 0.2664
190 16.426068061856 5.473349385449 0.2617
146 11.314947480553 11.211274347348 0.2757
51 7.231766987188 25.029414979301 0.2877
147 2.511021446022 2.401042332274 0.2845
191 12.827167046902 14.849716541402 0.2632
52 19.127788501496 13.933029745944 0.2537
53 8.832561908309 5.625189057731 0.2507
192 10.904035140568 25.386717771356 0.2887
54 17.792299694828 17.159355841226 0.2712
193 11.777125230382 2.773255564515 0.2589
55 19.674894938155 17.160041669387 0.2850
194 10.435543251259 2.649232583824 0.2828
56 14.859209194019 4.587195597331 0.2781
195 19.129875694060 22.231010965676 0.2569
148 12.115430622175 9.267595882526 0.2528
57 16.548492084038 6.750644051419 0.2669
196 17.544019324656 2.254150539865 0.2760
149 19.739057752781 20.288904777145 0.2628
24 17.451152042794 0.268635309227 0.2686
197 10.915176809502 1.284404761618 0.2822
58 0.406755115120 21.155784003462 0.2642
25 14.547819163606 6.918833137227 0.2855
112 13.382479109906 2.335931348383 0.2507
59 17.033821531496 1.346442981535 0.2531
198 6.537152699897 3.990430460589 0.2863
26 8.117446770214 1.353153905682 0.2849
113 16.133200077776 30.139257668964 0.2529
60 14.841912100426 19.886951264865 0.2767
199 14.231340047368 17.714294210393 0.2687
27 6.114008799498 11.486150957915 0.2653
114 11.225397523563 17.979010568422 0.2501
87 14.960878954755 13.092691084467 0.2626
162 4.483424012322 2.160388219603 0.2877
115 14.706632356753 28.561159356309 0.2731
28 9.934973585529 5.717464333681 0.2547
88 2.251844995049 6.863190923215 0.2628
163 15.747400471546 14.708860699524 0.2700
116 1.406859794546 0.309432318354 0.2841
29 11.896187345062 0.280343518866 0.2780
89 2.631734670765 1.169283943884 0.2831
164 -1.173982454559 25.155129661296 0.2868
30 13.316183044489 20.158284759865 0.2656
117 0.268106412835 1.774679431505 0.2668
90 15.824104536101 13.642411367580 0.2821
165 0.279493589987 4.660142232030 0.2795
118 9.527432328261 11.752515748279 0.2554
31 19.725749941386 10.183370362330 0.2743
91 11.443544623537 12.107266650156 0.2577
166 -0.102239167057 31.025739500703 0.2754
32 4.833901608278 5.308063891775 0.2532
119 2.707752380277 21.937115326448 0.2610
167 3.161964647152 24.229014103672 0.2781
92 0.284464923494 0.284466745818 0.2845
33 19.737559756339 19.156749483917 0.2624
120 11.671479521203 24.571453692649 0.2835
93 5.965475411973 33.187889380190 0.2710
168 9.544011948859 16.607897309845 0.2836
34 1.096544788873 36.903895377499 0.2687
121 10.525904504052 6.964424852487 0.2832
94 15.567251932290 10.086096876240 0.2533
169 17.102068309217 10.299639876238 0.2809
122 6.664136674982 22.772933379417 0.2684
35 19.715826328268 11.816143934051 0.2769
170 14.000408467017 25.123058920765 0.2721
95 9.703287522038 19.821971572905 0.2538
123 3.813113033403 5.829537500261 0.2567
36 18.388307592627 31.535987960236 0.2754
171 10.764941855614 15.702406897439 0.2561
96 17.872794632921 22.402718451925 0.2556
124 13.551953922111 5.454620476720 0.2724
37 1.747964643023 9.501034798874 0.2655
97 18.636700542693 15.445979308670 0.2635
172 18.589184139481 10.155185749699 0.2858
38 3.654162265880 6.563065388518 0.2616
100 3.677985265466 2.528440363892 0.2844
98 3.644261534849 22.057668930066 0.2794
173 6.059149237612 4.921004800418 0.2594
39 9.007640857337 8.163038890588 0.2644
101 5.480060885363 2.619173802940 0.2521
99 8.076193115012 22.468176670615 0.2754
174 13.528890516642 8.604472342916 0.2563
40 9.747432838535 13.034614167819 0.2885
102 19.743364852407 2.779866904409 0.2566
150 12.374149813639 8.326006461296 0.2762
74 17.103814301572 5.998622745040 0.2712
41 0.268933153140 15.772811746830 0.2677
103 -1.927723925244 28.999901734770 0.2762
75 18.058132965062 11.159110568845 0.2741
151 10.306719398160 7.796558186341 0.2672
76 2.837733042622 0.250197475282 0.2502
152 8.385306793628 16.565624818987 0.2794
104 10.218437487794 0.211139402575 0.2532
153 9.462573419167 9.837635498704 0.2657
42 16.560025433418 24.080974467224 0.2672
154 1.385908171666 22.887488159611 0.2751
105 9.596014864528 15.267035687987 0.2522
43 1.058678913334 5.202984008059 0.2849
155 9.630398978614 3.395264641338 0.2621
106 6.281821603796 1.457885088702 0.2846
156 6.167937296223 8.987007263612 0.2829
44 19.745679106949 4.978384040727 0.2543
107 12.952628084234 26.886300797700 0.2779
45 9.579638709114 4.481918553378 0.2529
157 21.314219459761 30.489285440485 0.2655
108 15.761450602333 4.437738730089 0.2612
46 14.419519004839 0.365862970865 0.2633
158 22.469302266615 25.553536154459 0.2688
109 13.748026785308 22.069172085823 0.2867
159 0.257839767741 2.898064415401 0.2579
47 13.710708620117 1.206048534602 0.2556
110 0.254037608446 8.262001486956 0.2540
160 19.731946507599 8.877493892279 0.2680
48 -0.604892907812 21.683201437562 0.2584
161 2.632892166073 12.312795350870 0.2754
12 4.426508017135 24.292717878315 0.2597
111 19.735087135941 15.830250651371 0.2649
13 7.270141626558 14.718954811690 0.2571
0 18.488779926489 4.140617610280 0.2532
77 19.445300164524 6.972772052178 0.2821
1 1.227472039956 6.452027566589 0.2531
14 18.175631786894 12.988676981342 0.2543
78 8.883985870728 2.099993799315 0.2615
2 16.891498755647 2.833447655675 0.2709
15 16.421286845270 31.983869505289 0.2752
79 6.751629258019 16.360293877427 0.2790
3 15.479307011511 7.941227210436 0.2765
16 16.621464553743 14.616502877556 0.2527
80 19.730296280449 12.935229107618 0.2697
4 12.607738461364 23.000880052304 0.2684
17 15.257223032905 6.046023561271 0.2865
5 17.623167346040 15.398519223735 0.2713
18 5.632553940991 6.494543714604 0.2651
82 19.920295835428 23.075278479665 0.2792
19 8.112761164885 2.690386476598 0.2511
6 12.751449875689 11.634236654760 0.2741
83 5.002670889923 17.464056819876 0.2733
20 2.364303965462 18.461964707490 0.2728
7 8.454401616843 18.435638814417 0.2612
84 0.584078611995 7.177679446594 0.2786
8 4.328970411478 9.233483785983 0.2748
21 17.157689191521 7.989462966989 0.2859
85 5.163094447876 1.222215909044 0.2564
22 0.293090395455 26.318248953749 0.2873
9 13.658328936484 0.251499026125 0.2515
86 16.277997885721 1.793993776590 0.2640
10 17.183434443711 20.257856686332 0.2841
23 5.091281685555 14.879316427716 0.2715
11 11.604107916660 6.117975308803 0.2763
201

-2 0.0 0.0 0.00000001 0.0 0.0
-1 20.000000 20.000000 0.00000001 0.0 0.0
125 12.528839657389 3.694233067005 0.2621
175 5.812563732017 0.283249917788 0.2833
126 3.414169120826 1.046987962410 0.2834
176 0.271209578832 10.838930188547 0.2712
127 19.726185732475 6.233672041970 0.2738
61 3.878321368929 16.393968281404 0.2533
128 1.621709115882 31.002410496948 0.2815
62 11.238513496366 5.103065604874 0.2502
177 3.935154296678 14.932660014543 0.2751
129 12.021328528683 19.788544879066 0.2730
63 15.315426249089 1.873763488130 0.2631
178 10.672959836873 10.077073324003 0.2779
130 9.606166857052 1.139979979574 0.2887
64 11.150239660089 29.141777750309 0.2856
65 12.401705957317 1.260784080988 0.2794
131 0.298383684524 9.582568665276 0.2779
179 19.729572029755 8.158504081038 0.2704
66 15.036531316065 3.545574966537 0.2593
132 1.352637742147 3.708553459193 0.2600
180 3.636209220911 4.066369902358 0.2824
67 8.840540046008 0.251155310872 0.2511
68 11.364280013949 7.962792987429 0.2764
181 2.996801614668 26.074010065344 0.2877
133 17.958588966555 0.294698225536 0.2881
69 3.502174411467 13.652767528578 0.2820
182 16.701299932207 2.901270012238 0.2867
134 19.441941552309 4.157943815238 0.2719
70 2.832041286432 15.579071618677 0.2729
71 4.813670217762 19.479043574428 0.2586
183 19.726033753198 0.272395640386 0.2724
135 0.284271905192 12.936951227730 0.2830
72 4.106665239188 0.265860662649 0.2659
184 0.591265290842 14.837074349208 0.2674
136 12.289775741894 4.721864426722 0.2779
73 7.711404418908 4.285848929296 0.2500
185 17.794915934350 5.499006390264 0.2775
137 2.696042983511 9.094320532890 0.2513
49 1.624226857783 10.755811514674 0.2545
50 12.220545198473 0.253700347457 0.2537
138 19.520391187611 1.621874449309 0.2884
186 6.332200643292 12.566740597444 0.2788
51 7.221408807187 25.693152724401 0.2877
139 11.270826226004 21.597181221424 0.2613
187 16.170124790925 0.262389855173 0.2624
52 18.903118708099 14.360130053463 0.2537
53 9.151344312843 5.831788314686 0.2507
140 7.262027325860 0.258810758113 0.2588
188 13.263104606928 19.208761080321 0.2895
54 17.544412945041 17.267374164449 0.2712
189 7.834292350373 7.953259234316 0.2619
141 19.717731264760 15.049960446099 0.2823
55 19.656790290036 17.155516219863 0.2850
56 14.876207426331 4.868426550370 0.2781
142 9.454529736095 14.422549378711 0.2500
190 16.432795483770 5.156652117837 0.2617
57 16.167084723846 7.130262724737 0.2669
191 12.894677482153 14.696352587004 0.2632
143 8.433936762098 10.843236327709 0.2636
58 0.479002566224 21.737672348977 0.2642
59 17.049069125624 1.188951061880 0.2531
192 11.128905265117 25.953629691096 0.2887
144 18.120437096681 25.906452486063 0.2609
60 14.951152142413 20.090024014773 0.2767
145 18.591920495951 19.655302293778 0.2664
193 11.787657133827 2.979619249354 0.2589
87 15.196048327701 13.262197295450 0.2626
88 2.687713282530 7.298754498938 0.2628
194 10.292091123189 3.190465423482 0.2828
146 11.203270493445 11.082519637174 0.2757
89 2.417034341425 1.133390927478 0.2831
195 19.382784235833 22.624726294015 0.2569
147 2.349234339664 2.136867675592 0.2845
90 15.728815353111 14.444806917967 0.2821
91 11.972551233132 12.639171333064 0.2577
148 11.517696238025 9.152301989142 0.2528
196 17.992046808821 1.715306167810 0.2760
92 0.284456342434 0.284466236529 0.2845
197 11.080676068610 1.497388058294 0.2822
93 5.659689363777 34.147190373047 0.2710
149 19.745421709673 20.952341637035 0.2628
94 15.233756307597 9.882068969351 0.2533
198 6.447159808849 4.054071481295 0.2863
112 13.009906640653 2.595860415445 0.2507
95 9.994260099051 20.116428032121 0.2538
199 14.033522020088 17.670823362616 0.2687
113 15.935502408353 30.897995563015 0.2529
96 17.699869594476 22.836558871684 0.2556
97 18.535835157642 15.848850069248 0.2635
162 4.438795076382 1.953111824445 0.2877
114 11.632591727390 18.079963684600 0.2501
98 3.842642464659 22.317039160906 0.2794
99 7.803197094154 23.289778413549 0.2754
163 15.367380188298 15.504852174088 0.2700
115 14.714187599246 29.184826340077 0.2731
74 17.241014371011 6.278449622934 0.2712
116 1.271221714930 0.337600443270 0.2841
164 -1.776979856024 26.225938093467 0.2868
75 18.063877744634 11.332998647110 0.2741
76 3.216824377077 0.250158605062 0.2502
117 0.270229490433 1.863868013921 0.2668
165 0.279506674309 4.393520662559 0.2795
77 18.938808763785 7.312220387211 0.2821
118 9.157319021835 11.876346270494 0.2554
166 -0.419647231140 32.115314224249 0.2754
78 9.082782067895 2.138642910169 0.2615
79 6.422864069394 16.513943363280 0.2790
119 2.638619361691 22.393595043223 0.2610
167 3.045753158352 24.687334733512 0.2781
80 19.730296398346 13.036335154876 0.2697
120 12.144002327435 25.287662052048 0.2835
82 20.105238274304 23.658419453385 0.2792
168 9.481352533590 16.644887124900 0.2836
83 4.914407739520 18.005577065599 0.2733
169 17.039628909212 9.633434257287 0.2809
121 10.972434334111 7.046814837929 0.2832
84 0.278542003572 7.348382358108 0.2786
122 6.580397627372 23.134844844181 0.2684
170 13.970259170137 25.652968628395 0.2721
85 5.246338508053 1.444894712300 0.2564
123 4.074467024542 5.100577228035 0.2567
171 11.011083909954 16.454731229517 0.2561
86 16.206090989777 1.824825242092 0.2640
150 12.473862547130 7.823242692579 0.2762
124 13.272601494191 5.724330198505 0.2724
172 18.480638334969 10.465818837372 0.2858
151 9.931475132405 8.242158371975 0.2672
24 17.011419151537 0.268624091367 0.2686
100 3.222838819053 2.860564976051 0.2844
173 6.038683915104 5.008960268456 0.2594
152 8.442684085647 16.976882249056 0.2794
25 13.824801161886 7.185207806369 0.2855
174 13.825036319380 8.705891999470 0.2563
101 5.807525750754 2.301863480534 0.2521
153 9.690546749715 9.463696035135 0.2657
26 7.971143272130 0.855846442961 0.2849
12 3.828769716785 25.144248152892 0.2597
154 1.068622274410 23.161168452993 0.2751
27 6.139455272490 11.594420245469 0.2653
155 9.253536845024 3.352097577936 0.2621
156 6.111932042046 9.102244105460 0.2829
157 21.444270226703 31.191692793006 0.2655
158 22.834048290608 26.021370976919 0.2688
159 0.257878851724 2.829132154521 0.2579
28 10.045616465020 5.477037006053 0.2547
160 19.732036534741 9.447018419064 0.2680
29 10.986512704324 0.302896290315 0.2780
161 2.483374317323 12.656693574163 0.2754
30 13.541406446446 20.649963290370 0.2656
0 18.575873830571 4.609163003018 0.2532
31 19.725436097722 10.266842166616 0.2743
1 0.915398217044 6.789633948908 0.2531
32 4.858399788179 4.699649331918 0.2532
2 17.711480984499 3.035819752908 0.2709
33 19.737552283192 19.251274041506 0.2624
3 15.366042425533 7.758278317629 0.2765
34 0.597891489071 38.133549178670 0.2687
4 12.753708354406 23.358218452098 0.2684
35 19.710468465728 11.909778757460 0.2769
5 17.762463576394 15.394393926131 0.2713
36 18.556133612926 32.519968946942 0.2754
6 12.577993094289 11.832997031720 0.2741
37 1.434896620404 9.721419481274 0.2655
7 8.660428953438 18.513304899457 0.2612
38 3.481882584884 6.846269925373 0.2616
8 4.335997465161 9.401889949594 0.2748
39 9.220103886437 8.798198053810 0.2644
9 13.314418179657 0.251517586244 0.2515
40 9.592826312092 13.262321527508 0.2885
10 16.929248422756 20.557852093504 0.2841
41 0.267706610677 15.715092798115 0.2677
11 11.597159918234 6.234858123424 0.2763
42 16.622381528462 24.475779412906 0.2672
43 0.828622425842 5.573746178054 0.2849
13 7.632885112631 15.047579807955 0.2571
14 18.570700760461 13.295219188797 0.2543
15 16.780620496592 32.744410495532 0.2752
16 16.852948508695 15.500160682347 0.2527
17 14.787711743330 6.583481424235 0.2865
18 5.376543991304 6.377576932193 0.2651
19 8.282105752392 2.588418355183 0.2511
20 2.773059773873 18.940047741130 0.2728
21 17.056934197875 7.877680000590 0.2859
22 0.295330060139 27.159891705489 0.2873
23 5.359035126789 14.934570757273 0.2715
44 19.745682046310 5.064360405057 0.2543
102 19.743361396457 3.010269785274 0.2566
45 9.185866020905 4.527000507833 0.2529
46 14.352153989735 0.522218719154 0.2633
103 -2.296075035886 29.948963175704 0.2762
47 13.811324341795 1.408999080402 0.2556
48 -0.926958261503 21.981125364040 0.2584
104 9.680740210960 0.118744828455 0.2532
105 9.224063020773 15.382926414046 0.2522
106 6.239218669161 1.521816380696 0.2846
107 12.976687926635 27.438514945676 0.2779
108 16.342301045534 4.015205225659 0.2612
109 13.922787772288 22.598486547085 0.2867
110 0.254037836597 8.247271787082 0.2540
111 19.735087021725 16.144318534583 0.2649
201

-2 0.0 0.0 0.00000001 0.0 0.0
-1 20.000000 20.000000 0.00000001 0.0 0.0
125 12.499605718083 3.897444562015 0.2621
175 5.834888927987 0.286970933870 0.2833
126 3.280222247779 1.456334395714 0.2834
176 0.271209407353 10.774049880462 0.2712
127 19.724368069225 6.311728413305 0.2738
61 3.798841907064 16.280192987958 0.2533
177 4.403634787984 15.262285912103 0.2751
128 1.489535433858 31.892369374829 0.2815
62 11.271069348343 5.483938650531 0.2502
178 10.502540654391 10.270427687538 0.2779
129 11.720944916131 20.128432531407 0.2730
63 15.262474262891 1.768862362377 0.2631
64 11.238312797179 29.703348046836 0.2856
130 9.651851119513 0.885686511031 0.2887
179 19.729571375447 8.129314106681 0.2704
65 12.457702637838 1.114772574312 0.2794
131 0.277931144706 9.892089556616 0.2779
180 3.042337709760 4.490170364600 0.2824
66 15.392230915763 3.514377427931 0.2593
67 8.714652590326 0.250874163147 0.2511
132 1.658212526416 4.331777582840 0.2600
181 2.925476077481 26.596346008281 0.2877
68 11.756351475105 8.273654059053 0.2764
133 18.017527902515 0.324460720217 0.2881
182 17.346728957596 2.969777102206 0.2867
69 4.120698146843 13.825170474375 0.2820
134 19.415596514383 4.463493148541 0.2719
183 19.724129424166 0.272393098222 0.2724
70 2.783499082119 15.572895733894 0.2729
184 0.760215174440 14.686258080795 0.2674
135 0.285819100154 12.889668728212 0.2830
71 4.944999031455 19.671990585858 0.2586
72 4.677120592910 0.265863105649 0.2659
136 11.584710520952 4.499265454230 0.2779
185 17.701773930495 5.551977063243 0.2775
73 7.640563438629 4.321432409783 0.2500
137 2.897698174729 8.779440035714 0.2513
186 6.244692368169 12.803700253006 0.2788
49 2.024514608567 11.402039472965 0.2545
50 11.353779129928 0.253703651448 0.2537
187 15.403240513046 0.262389009726 0.2624
138 19.707406946291 1.362163953435 0.2884
51 7.211488601077 26.334429951247 0.2877
188 13.499936697558 19.512624598205 0.2895
139 11.321082888223 21.828608714615 0.2613
52 18.658893390598 14.739884302634 0.2537
53 9.138644274296 6.106118942847 0.2507
189 7.717894000302 8.004669393356 0.2619
140 6.680402274352 0.258818575920 0.2588
54 17.304107626434 17.370973884678 0.2712
190 16.414482693909 4.843529173187 0.2617
141 19.717730690952 15.087304063055 0.2823
55 19.613887873557 17.414313712892 0.2850
56 14.885730681413 5.150213652935 0.2781
57 16.010273023282 7.339117270477 0.2669
142 9.565585600707 14.935251621004 0.2500
191 12.959829219178 14.546856599143 0.2632
58 0.550913333599 22.298016691960 0.2642
143 8.527744480078 10.946635472189 0.2636
192 11.329687258730 26.513723114175 0.2887
59 17.032723180740 1.220090380873 0.2531
60 15.056874940092 20.285397215312 0.2767
193 11.727153293856 3.125165364100 0.2589
144 18.242979236514 26.363951981228 0.2609
87 15.412096023582 13.411870894211 0.2626
194 10.255398300577 3.679121366432 0.2828
145 18.362999148417 19.881451722930 0.2664
88 2.858927747428 7.888446793648 0.2628
89 2.053051974828 0.957745923910 0.2831
195 19.622863832736 22.998892987636 0.2569
146 11.115720363117 10.988284197527 0.2757
90 15.659673095030 15.187604516356 0.2821
196 18.675026154744 1.356347694168 0.2760
91 12.437608097614 13.229140927919 0.2577
147 2.152286161860 2.046673018484 0.2845
92 0.284463282887 0.284466515605 0.2845
197 11.237385199405 1.717364309395 0.2822
148 10.941199355406 9.065254643091 0.2528
93 5.363877223462 35.074516055474 0.2710
149 19.751253515461 21.594020983023 0.2628
198 6.470576120265 3.865247942749 0.2863
94 14.910629154524 9.683761695625 0.2533
95 10.275854741596 20.400310591707 0.2538
199 13.841863058921 17.627659819380 0.2687
112 12.664075686559 2.832723611932 0.2507
96 17.532035623810 23.255406979462 0.2556
97 18.775056718609 16.410195489175 0.2635
113 15.743976019003 31.631225925500 0.2529
162 4.535117079248 2.310414225530 0.2877
98 4.075990240405 22.568022869623 0.2794
163 14.979667198494 16.320377988617 0.2700
114 12.026667740711 18.176687964402 0.2501
99 7.548362199024 24.085722597197 0.2754
74 17.272275068219 6.737490870381 0.2712
115 14.721336997179 29.787330122868 0.2731
164 -2.360122983428 27.261264535527 0.2868
75 17.953761543345 11.735813995327 0.2741
116 1.356875708220 0.367153333234 0.2841
165 0.279506897538 4.106933435913 0.2795
76 2.862095236294 0.250207773062 0.2502
77 18.397134444183 7.698032544189 0.2821
117 0.275398727321 1.789464301733 0.2668
78 9.261446409490 2.415953451866 0.2615
166 -0.726506920191 33.168761621052 0.2754
118 8.802904283427 12.002029220610 0.2554
79 6.104894371909 16.661579299039 0.2790
80 19.730307755182 13.156820183566 0.2697
119 2.530975923485 22.833302656794 0.2610
167 2.673487870790 24.993602758989 0.2781
82 20.288221653168 24.227665597626 0.2792
120 12.617970347100 25.967178106584 0.2835
168 9.480697708752 16.667686284518 0.2836
83 4.829255218468 18.527132786800 0.2733
84 0.278569450269 7.494014419907 0.2786
121 11.083395605170 6.974392150940 0.2832
169 16.978371824335 8.988077111528 0.2809
85 5.216550494766 1.333279632243 0.2564
122 6.490216576473 23.482131580916 0.2684
170 13.941000389754 26.164744832208 0.2721
86 16.491574738575 1.861586615819 0.2640
24 16.870762653151 0.268629146651 0.2686
123 4.223424134935 4.810509752516 0.2567
171 11.249421479733 17.181587873849 0.2561
25 13.313648693678 7.438786820583 0.2855
124 13.124402967871 6.104281533491 0.2724
172 18.479679460437 10.531118045874 0.2858
26 7.978502032684 0.776409990262 0.2849
27 6.125209323193 11.525013905106 0.2653
100 2.764112037690 3.207902517270 0.2844
173 5.910691931538 5.342747811147 0.2594
28 10.436899908719 5.171145499527 0.2547
29 10.388290574891 0.386520608345 0.2780
174 14.111682612078 8.803342665269 0.2563
12 3.604717754740 26.009222164054 0.2597
13 7.977149396562 15.362574822449 0.2571
14 18.910594360534 13.583202482201 0.2543
150 12.378786969285 7.353102384556 0.2762
15 17.128155033347 33.479391434709 0.2752
30 13.759335150512 21.125791626081 0.2656
16 16.552978530113 16.295284493992 0.2527
151 10.078836379984 8.333724932635 0.2672
17 14.355516408944 7.056973982890 0.2865
101 5.989219429547 2.323536017968 0.2521
152 8.439166080992 17.389909533887 0.2794
31 19.725758905428 11.088920992348 0.2743
18 5.129004014913 6.264135509816 0.2651
153 10.140908365592 9.370146570757 0.2657
102 19.743363071858 2.883519249365 0.2566
19 8.146545603180 2.607420921635 0.2511
32 5.235877352479 3.924345892387 0.2532
103 -2.652159412889 30.866449645000 0.2762
154 0.762252729596 23.426196246142 0.2751
20 3.169027057509 19.401709452035 0.2728
33 19.737551729336 19.334239491925 0.2624
155 8.798531826887 3.367011392006 0.2621
104 9.655056357643 -0.321995782152 0.2532
34 0.115547900580 39.322544404869 0.2687
21 16.979446940228 7.785322780754 0.2859
156 6.058139006205 9.212751300211 0.2829
105 8.799252112950 15.647846362956 0.2522
35 19.703786652201 11.972994449133 0.2769
22 0.297855010762 27.973400475988 0.2873
157 21.569766593181 31.870452806359 0.2655
106 6.750846332063 1.355697916163 0.2846
23 5.619940947508 14.986876356137 0.2715
36 18.718304618357 33.471204487690 0.2754
107 12.999867601055 27.971860173211 0.2779
158 23.186576042286 26.473156231353 0.2688
37 1.187655075393 9.379306858810 0.2655
0 18.542227164605 5.111498667852 0.2532
159 0.257883140311 2.910379826893 0.2579
108 16.815410381011 3.783082585462 0.2612
38 3.563086556087 6.963613958775 0.2616
1 1.127252493456 6.710455977195 0.2531
160 19.731892173436 9.424524508255 0.2680
109 14.093081216454 23.108842909023 0.2867
2 18.757381678066 3.310009734209 0.2709
39 8.511255178961 9.348210152647 0.2644
161 2.337492648099 12.985563790642 0.2754
110 0.254037911049 8.687937207871 0.2540
3 15.028789976865 7.750782691492 0.2765
40 9.484402915384 13.330680317225 0.2885
111 19.735095491255 16.366247672830 0.2649
41 0.267711353399 15.947953159793 0.2677
4 12.893533604903 23.703798117777 0.2684
42 16.682456935602 24.856813749615 0.2672
43 0.621177915697 5.919943671132 0.2849
44 19.745681346486 5.499715771034 0.2543
5 18.050570371286 15.288743560658 0.2713
45 8.803096040648 4.579628838868 0.2529
46 14.447445491494 0.635770348790 0.2633
6 12.458211211158 11.953615983796 0.2741
47 13.873125276884 1.679510744271 0.2556
7 8.859993042917 18.587853437433 0.2612
48 -1.240076747305 22.269094816246 0.2584
8 4.343359976776 9.563932529624 0.2748
9 13.317663498408 0.251517867425 0.2515
10 16.682911675573 20.847149082717 0.2841
11 11.778447667575 6.183697055931 0.2763
201

-2 0.0 0.0 0.00000001 0.0 0.0
-1 20.000000 20.000000 0.00000001 0.0 0.0
125 12.547130917660 4.109149369050 0.2621
175 5.866559078465 0.289394868322 0.2833
126 3.266760842287 2.152722555647 0.2834
176 0.271287355804 11.154298615332 0.2712
127 19.706336437033 6.989917095520 0.2738
61 3.722421159078 16.183071223356 0.2533
128 1.361967814466 32.752087040770 0.2815
177 4.854773732792 15.573979904758 0.2751
62 11.233690275785 5.723102873641 0.2502
129 11.439213979176 20.454083220569 0.2730
63 15.027623719635 1.670705732672 0.2631
178 10.291190929306 10.525477203166 0.2779
64 11.323463974652 30.245411366543 0.2856
130 9.262647096657 1.177574398564 0.2887
179 19.729348559647 8.098640979734 0.2704
65 12.509376240131 0.990657383752 0.2794
180 2.593406869660 4.696253527506 0.2824
131 0.278028380696 9.895541009090 0.2779
66 15.734717140621 3.483191784821 0.2593
67 8.733489504722 0.251115893059 0.2511
132 1.614789229101 4.966015719259 0.2600
181 2.526589284228 27.402536602192 0.2877
68 12.137624958400 8.568213251530 0.2764
133 18.157413998982 0.331208272884 0.2881
69 4.719190603595 13.990170861509 0.2820
182 18.155464896014 2.687629062811 0.2867
70 2.730117585805 15.561532127055 0.2729
134 19.358943372748 4.530795223057 0.2719
71 5.081427354773 19.902142037374 0.2586
183 19.724919483734 0.272386969008 0.2724
72 4.491644982116 0.265863195007 0.2659
184 0.929447539634 14.525631996967 0.2674
135 0.287957912748 12.843050102736 0.2830
73 7.554630509554 4.351508634907 0.2500
49 2.412419125301 12.026231742828 0.2545
185 17.452170531051 5.662863725225 0.2775
136 11.045621453592 4.177794157681 0.2779
50 11.269125029784 0.253704595605 0.2537
137 3.157571608927 9.166117011096 0.2513
186 6.162616248430 13.047817142889 0.2788
51 7.201996032753 26.953590871618 0.2877
52 18.823218820260 14.720660923415 0.2537
187 15.013444195229 0.262388833410 0.2624
138 19.711615477303 1.270899096286 0.2884
53 9.123935164423 6.371840481910 0.2507
188 13.728828076063 19.805309042186 0.2895
54 17.087579699961 17.483858556329 0.2712
139 11.369645948534 22.051384859799 0.2613
55 19.552396016539 17.889419218260 0.2850
189 7.605516591773 8.053247609323 0.2619
140 6.848037476247 0.258818970730 0.2588
56 14.894053760895 5.422076821241 0.2781
141 19.717735669243 15.138119969202 0.2823
57 15.979320157586 7.389590212510 0.2669
190 16.375347609740 4.577819798093 0.2617
58 0.618192568197 22.778833104052 0.2642
142 9.749764767605 15.318955708468 0.2500
191 13.053158041143 14.499147957434 0.2632
59 17.368720859075 1.272068336651 0.2531
192 11.521346063065 27.055608194341 0.2887
143 8.610928836765 11.011140913105 0.2636
60 15.159007244126 20.473185120009 0.2767
144 18.361189242260 26.805402621906 0.2609
193 11.500540067714 3.271610687028 0.2589
87 15.620633026150 13.555492391817 0.2626
194 10.162224336654 4.101062935686 0.2828
