202

121 14.560192756299 5.236639335554 0.2511
160 14.469152810681 1.215658663441 0.2571
163 9.035434895369 18.944056137794 0.2712
164 16.389405323296 4.256850393416 0.2859
165 2.827212910258 19.345469665380 0.2798
166 8.167070448733 19.171216540366 0.2779
161 3.061423270625 8.260317281396 0.2608
167 9.985266201254 6.618367480433 0.2762
137 16.060722600376 17.874375621543 0.2796
168 6.255495253459 6.814917265770 0.2730
138 10.706309906900 18.295797476495 0.2670
169 10.245276009484 9.930242175245 0.2891
170 0.529899507727 8.547708712243 0.2796
139 9.073208615135 15.390313407555 0.2530
140 6.386638310990 8.852756417162 0.2772
171 8.079747317268 16.571948356566 0.2615
141 4.302937674310 9.476512725548 0.2570
172 16.242097428136 14.250904432584 0.2520
142 4.959280449900 11.593723437110 0.2503
143 11.560440335865 13.620078496949 0.2506
144 10.710803030706 17.606526751446 0.2616
122 2.399477396959 1.565651821309 0.2522
123 2.066690220166 14.534267732204 0.2671
124 16.235255684689 5.141575674640 0.2640
100 0.615679917167 9.756371047670 0.2504
101 14.533366262023 7.311426452094 0.2531
102 15.096772420608 12.136297263710 0.2676
103 1.675986322715 4.029820631535 0.2736
104 0.814329220689 15.824385997361 0.2802
105 18.778208426057 17.048404165135 0.2819
106 17.043532468978 2.617105152988 0.2791
107 0.855819310333 13.913206688310 0.2687
108 13.954563956994 13.328178899808 0.2622
109 0.265355596664 11.008500497481 0.2644
110 17.673994707315 8.927183710646 0.2674
111 13.900799458918 17.077159681220 0.2524
145 3.987601101711 12.101862927327 0.2594
173 3.996709519487 16.200608238593 0.2826
174 0.521349779927 6.111760584965 0.2581
146 8.438803535535 5.146260934094 0.2562
147 16.252920477643 11.607665389212 0.2525
148 17.931291966294 5.727245593077 0.2752
149 1.242652847130 13.367693819782 0.2828
125 3.800770193053 12.761504365754 0.2700
126 5.250519047872 7.532191020017 0.2786
127 18.536432853023 11.025626761852 0.2864
128 14.907703602194 8.225951515717 0.2661
129 16.442367870961 7.615293748578 0.2608
130 17.312552376458 18.249470000207 0.2583
131 0.538188701628 16.969685826507 0.2881
132 3.402766187874 11.738787192968 0.2752
133 15.359779431488 5.781018889832 0.2589
134 10.505377347149 16.520939879775 0.2837
135 2.537449756934 13.440724541426 0.2528
136 1.002929965539 4.938419277065 0.2848
202

-2 0.0 0.0 0.00000001 0.0 0.0
-1 20.000000 20.000000 0.00000001 0.0 0.0
125 3.787065248989 12.827991140364 0.2700
126 5.251266419953 7.531171389645 0.2786
127 18.535667178905 11.024659579538 0.2864
175 16.938662012989 16.329871339930 0.2630
128 14.871366498355 8.208705104560 0.2661
176 15.643819941657 11.164627324062 0.2668
177 12.860842538494 18.407883230957 0.2774
178 15.527204631545 10.277048558313 0.2852
179 6.182471166675 19.239838003730 0.2797
180 3.229767190814 16.400606687509 0.2589
181 10.063239208942 0.627572060120 0.2637
182 16.262459735552 2.401034697699 0.2672
183 17.725925198655 19.316135638889 0.2765
184 9.273321261340 19.672611443621 0.2590
185 6.904227830858 10.392127954137 0.2511
25 3.568024042589 5.002706995018 0.2862
26 7.272670531999 4.707946147984 0.2556
27 15.178674217690 18.692501133099 0.2771
28 16.673617415615 9.901861759039 0.2586
29 17.333663076362 7.974832578307 0.2727
30 11.130408430759 5.277585167484 0.2584
31 9.949144067041 8.008642639585 0.2777
32 17.548915426464 16.868165562362 0.2600
33 14.900072906030 0.352415900724 0.2656
34 13.272601938519 15.214732315845 0.2502
35 12.524058023141 12.958480495073 0.2538
36 8.157563603953 14.383988334506 0.2668
37 7.724819881012 3.877956438323 0.2592
38 5.656618786079 11.302407004100 0.2524
39 12.938399321571 7.402867500893 0.2653
62 7.860609361070 8.918693145324 0.2569
40 17.956386679699 10.079228863924 0.2665
41 17.107091305773 12.760060214820 0.2723
63 17.281530731463 13.579054342341 0.2871
42 0.462377813997 2.013483534470 0.2775
64 7.740036709453 12.775281657767 0.2548
43 11.269546602535 7.798528218442 0.2752
65 7.691320210904 11.819744073057 0.2675
44 10.793500766541 7.111739217926 0.2667
66 11.841751981611 4.287335742498 0.2886
45 1.680868701066 5.447208552033 0.2755
67 9.129851102473 4.844560036186 0.2768
46 0.601309302306 1.127406993629 0.2780
68 13.177760518805 6.251010725642 0.2607
47 6.810538668344 1.981261101936 0.2657
69 1.474606483513 7.188676039935 0.2669
48 18.839771938573 13.475633668142 0.2593
70 5.086338761981 16.221602234325 0.2750
49 13.684251431241 5.032503366145 0.2726
71 15.631874128757 14.024655194792 0.2717
72 4.263218287102 19.255745298531 0.2615
12 3.533813445220 9.131029918765 0.2729
73 1.571125344002 0.561216292575 0.2794
13 1.818069516197 3.373000905900 0.2662
74 16.053384805254 16.328561576274 0.2791
14 11.360603141251 18.791812423928 0.2537
50 13.800491624479 11.244060513251 0.2590
15 13.230642116669 3.995097992028 0.2672
51 13.355748249400 14.346241595861 0.2583
16 16.912285400210 11.233883207637 0.2755
17 14.581442050321 10.347202650078 0.2850
52 2.834532141158 4.135101417919 0.2579
18 13.009683320838 13.645298747588 0.2798
53 2.613136957507 6.842364011006 0.2591
19 10.335860707978 13.713860646866 0.2765
54 5.417380170372 3.623907378839 0.2708
20 5.069145196440 4.857140540173 0.2725
21 6.827653846737 5.548137042397 0.2658
55 9.381118723196 12.386603463376 0.2769
22 2.163664262865 2.663504866703 0.2647
23 18.647413312189 3.985419050232 0.2542
24 2.704356289353 0.861906904480 0.2774
0 15.430230645334 2.216416328015 0.2573
186 3.594271920383 1.408500704636 0.2572
1 5.062168932197 13.764511921510 0.2868
187 10.523889847594 2.179043394183 0.2617
2 10.142398995198 10.720965491971 0.2774
188 9.726064637527 18.427749986572 0.2700
3 1.533311751050 12.492351890974 0.2747
189 5.606742020225 18.572264419137 0.2669
4 18.980283306560 2.538716514152 0.2638
190 13.202492394559 1.836397734801 0.2712
5 6.712520406867 2.752922315461 0.2522
191 3.275698710367 13.630267485121 0.2619
6 0.266232693461 7.223269220385 0.2517
192 6.155252029496 10.289813879253 0.2537
7 3.252906856422 9.927185490339 0.2810
193 15.706538795878 7.809195440647 0.2771
8 3.929180281926 2.567827077944 0.2855
194 12.970053132140 0.977923449097 0.2674
9 11.969982725993 17.081873567441 0.2652
195 5.173845056582 1.554258942596 0.2787
10 18.072582176956 13.062064283935 0.2811
11 15.819301502153 6.506017542771 0.2679
196 10.030155316794 1.510806923892 0.2652
87 1.951529676711 13.177015971495 0.2784
197 2.164086148782 10.517979079748 0.2771
88 7.754686182003 6.182427776679 0.2826
198 7.470874877212 1.552670058884 0.2592
89 9.209051864640 14.218260176512 0.2629
199 16.907215850627 7.008562158944 0.2607
90 7.944804253492 7.245281704317 0.2665
162 18.322357621296 18.663878621186 0.2513
91 11.060895003673 6.272559627784 0.2712
163 8.921953129358 18.998917575212 0.2712
92 4.734115998044 18.527631204840 0.2763
164 16.388979472269 4.250723704411 0.2859
165 2.832632127477 19.362818468717 0.2798
93 12.890346370240 5.462705683106 0.2664
94 5.572324250755 6.454688840989 0.2734
166 8.162196995140 19.170815106113 0.2779
95 11.789993908614 8.918503507300 0.2844
167 9.983036068844 6.615624264898 0.2762
96 2.678997168617 11.283611753158 0.2780
168 6.231288656472 6.877865869784 0.2730
169 10.252176712719 9.875523191175 0.2891
97 3.473561644356 6.929182796748 0.2708
170 0.450845492473 8.451288349219 0.2796
98 18.106283395526 8.221186857661 0.2763
171 8.079901057204 16.570331320447 0.2615
99 6.552661783999 4.583616839147 0.2853
75 12.177442167469 5.134222589382 0.2765
76 1.564273437130 8.142055954194 0.2659
172 16.347813441011 14.280571669863 0.2520
77 12.392985562831 9.780272929945 0.2560
173 4.081489426681 16.176817115096 0.2826
78 12.983141283582 15.984787969734 0.2832
174 0.522685726135 6.110770529911 0.2581
79 1.101072865949 9.183692186947 0.2854
150 11.615344224478 12.711971865359 0.2747
151 2.627155863557 18.567972651776 0.2558
152 7.753445677059 5.321339148884 0.2742
153 18.856658787031 16.240039701437 0.2752
154 8.918997888483 10.666421346697 0.2844
155 6.549841692426 8.118535194366 0.2732
56 11.445865193346 1.055270029410 0.2586
156 10.712983644623 19.463484044511 0.2756
57 5.187611541967 10.494660132483 0.2639
157 14.863939324651 14.089018292523 0.2524
58 16.595911055822 8.434846947280 0.2741
158 5.518888526552 15.303676777388 0.2644
59 3.024418561448 1.963016131618 0.2601
159 4.292931030488 1.759995394733 0.2707
60 17.963243152867 15.882820509130 0.2855
160 14.466864554742 1.216658222118 0.2571
61 9.095444046567 2.828191413753 0.2770
161 3.061905755870 8.258152913724 0.2608
112 7.527113701838 9.861392135746 0.2893
137 16.060290998922 17.872737333171 0.2796
113 5.843856343529 2.136659820255 0.2715
138 10.603862612457 18.261958283837 0.2670
114 18.894840499001 14.223109567096 0.2694
139 9.073266166964 15.388799480145 0.2530
115 8.105069968034 10.855845000087 0.2736
116 4.064851090261 7.504163577883 0.2633
140 6.376304404831 8.899505941896 0.2772
117 15.595677852178 8.592002980410 0.2757
141 4.312451583579 9.478577390021 0.2570
118 2.899034436907 12.410480352304 0.2582
142 4.936460084944 11.602228138587 0.2503
119 6.798379486795 6.311356783018 0.2853
143 11.560047772072 13.622074248405 0.2506
120 16.912574589783 6.217615442051 0.2565
144 10.710330582851 17.556244286525 0.2616
121 14.561772334394 5.235468295760 0.2511
145 4.087544347978 12.087078471822 0.2594
122 2.348874554217 1.576046416563 0.2522
146 8.450929539251 5.155722088961 0.2562
123 2.067422038825 14.532940941773 0.2671
147 16.227980655677 11.654288578755 0.2525
124 16.233403755960 5.145454225049 0.2640
148 17.930186047697 5.726155146331 0.2752
100 0.604589089256 9.776293147139 0.2504
149 1.238683237999 13.298790757610 0.2828
101 14.532118759195 7.308968072137 0.2531
102 15.096000356296 12.135045649079 0.2676
129 16.419141320478 7.564841211850 0.2608
103 1.663765775522 4.085197907195 0.2736
130 17.311477110486 18.247462937629 0.2583
104 0.815171658350 15.822780289335 0.2802
131 0.538913393380 16.968448692920 0.2881
105 18.775268267584 17.070999849935 0.2819
106 17.059693766268 2.621392799355 0.2791
107 0.843455450243 13.939339162049 0.2687
108 13.955158036803 13.326242892215 0.2622
109 0.266404961232 11.007285622262 0.2644
110 17.616893702710 9.023100878340 0.2674
111 13.900471022668 17.075571596456 0.2524
132 3.334856073060 11.680176557531 0.2752
133 15.355806431991 5.774902722665 0.2589
134 10.505289090746 16.518952357799 0.2837
135 2.505083444370 13.440189207449 0.2528
136 0.911995845568 4.868357440852 0.2848
80 19.412468417053 0.764587244234 0.2701
81 15.902021799693 15.319774800133 0.2771
82 6.797035284019 7.405304743048 0.2708
83 0.374062823193 14.493978079516 0.2750
84 18.040385522485 14.205091067965 0.2611
85 18.707863509826 6.819253982757 0.2633
86 5.717407500931 4.537927194984 0.2692
202

-2 0.0 0.0 0.00000001 0.0 0.0
-1 20.000000 20.000000 0.00000001 0.0 0.0
25 3.570345254419 5.001332599533 0.2862
87 1.952144018177 13.137951886872 0.2784
62 7.861719718691 8.914500296884 0.2569
26 7.258385666366 4.654685462004 0.2556
88 7.759227154702 6.189886926289 0.2826
27 15.177854863402 18.690062673812 0.2771
89 9.209881536853 14.215345814986 0.2629
28 16.672269860696 9.899564386391 0.2586
63 17.281955979870 13.610068499180 0.2871
90 7.945818596691 7.243496789846 0.2665
29 17.384130031420 7.942994968160 0.2727
64 7.740582701266 12.775630969593 0.2548
91 11.063675202982 6.262723725136 0.2712
30 11.128922013695 5.273487154821 0.2584
65 7.691187027184 11.815089458135 0.2675
92 4.730237026947 18.514498743609 0.2763
31 9.949021500945 8.006092713860 0.2777
66 11.804856695680 4.194954023959 0.2886
93 12.897113225305 5.458960323754 0.2664
32 17.564002771182 16.881184681404 0.2600
67 9.197393167285 4.812486251349 0.2768
33 14.898602302442 0.349846604577 0.2656
68 13.181814846924 6.262494695151 0.2607
94 5.521911845721 6.424308159133 0.2734
34 13.294502485202 15.156077183644 0.2502
69 1.476264816150 7.183593236263 0.2669
95 11.788969300068 8.915071690445 0.2844
35 12.479016995641 12.889699569971 0.2538
70 5.087901195509 16.220711622402 0.2750
96 2.659465285789 11.271631171302 0.2780
36 8.157001987052 14.381456727279 0.2668
71 15.636878539880 13.981990906852 0.2717
37 7.727198546787 3.873227441376 0.2592
72 4.257406402921 19.263186225798 0.2615
97 3.469762669973 6.913149556401 0.2708
73 1.573926172594 0.560628524793 0.2794
38 5.690194370721 11.290486003786 0.2524
98 18.182124463522 8.131148809005 0.2763
39 12.937477842156 7.400536127527 0.2653
74 16.043792902931 16.327981274665 0.2791
99 6.615297814968 4.577116787072 0.2853
40 17.954584146889 10.076871454221 0.2665
75 12.194525551086 5.211838108162 0.2765
41 17.097528397223 12.724920996261 0.2723
76 1.567190603346 8.142895423441 0.2659
42 0.463371217304 2.023164629192 0.2775
77 12.393084559241 9.778588088977 0.2560
43 11.280761975779 7.812534641835 0.2752
78 12.959803231322 16.043163435868 0.2832
44 10.782404473649 7.103165286875 0.2667
79 1.202373554612 9.245829963397 0.2854
45 1.774979881627 5.514945580875 0.2755
46 0.605085909859 1.117107882571 0.2780
80 19.409814580462 0.764363775637 0.2701
47 6.796438462691 1.955445512256 0.2657
48 18.920120787219 13.477410693227 0.2593
81 15.900683964765 15.315661221775 0.2771
49 13.683175179804 5.025889612953 0.2726
82 6.833438399356 7.382039219601 0.2708
12 3.531695341303 9.102677141140 0.2729
83 0.303397413244 14.578442550752 0.2750
13 1.799665640056 3.376755799727 0.2662
84 17.957863888421 14.206838861041 0.2611
14 11.465854344129 18.865882742775 0.2537
85 18.705816383026 6.817593893525 0.2633
15 13.228936816825 3.992567794683 0.2672
86 5.688610700856 4.505578488240 0.2692
16 16.969513021620 11.198775342082 0.2755
17 14.574321046066 10.345011541167 0.2850
175 16.929556812176 16.313142456265 0.2630
18 13.045020744886 13.690683181547 0.2798
176 15.607461731162 11.142602359777 0.2668
19 10.335855996466 13.711161107066 0.2765
177 12.860480479400 18.405245951634 0.2774
20 5.004908049798 4.884914058606 0.2725
178 15.530862873060 10.266180584507 0.2852
21 6.832001029390 5.474854285215 0.2658
179 6.190073427532 19.245416918377 0.2797
22 2.205432880451 2.578666410720 0.2647
180 3.143161880213 16.421114276707 0.2589
23 18.645011584897 3.984270070393 0.2542
181 10.063488577584 0.617021254624 0.2637
24 2.724778323444 0.818263700959 0.2774
182 16.245286627036 2.395424237138 0.2672
0 15.417510226849 2.213072842603 0.2573
183 17.659519466141 19.385870093873 0.2765
1 5.063018028684 13.761987071754 0.2868
184 9.287780935277 19.708648277643 0.2590
2 10.134717992041 10.778478492664 0.2774
185 6.879749029181 10.434386408724 0.2511
3 1.510759911829 12.427955493392 0.2747
186 3.563768620259 1.363847845156 0.2572
4 18.977728842106 2.537962429502 0.2638
187 10.534067883097 2.190543107295 0.2617
5 6.709190714503 2.791544876763 0.2522
188 9.828966049846 18.343798291700 0.2700
6 0.268159223896 7.221831952482 0.2517
189 5.611289965734 18.562016692980 0.2669
7 3.246026830404 9.947435433559 0.2810
190 13.225112146672 1.927014290463 0.2712
8 3.899504851980 2.654139041961 0.2855
191 3.373881839582 13.655206636146 0.2619
9 11.969747399957 17.079216791138 0.2652
192 6.132226069295 10.284047558731 0.2537
10 17.992635201462 13.008872842803 0.2811
193 15.584857954853 7.808089416987 0.2771
11 15.822768265878 6.512847547671 0.2679
194 12.942678324884 0.884936597218 0.2674
195 5.112908980964 1.492960592370 0.2787
162 18.387487804171 18.589889601851 0.2513
196 10.019495049656 1.501879843434 0.2652
163 8.820422304277 19.035007468226 0.2712
197 2.161755743955 10.510288969479 0.2771
164 16.388201566718 4.241134522083 0.2859
198 7.496801913060 1.535021703484 0.2592
165 2.840185639003 19.386120789325 0.2798
199 17.003882267544 6.885544685191 0.2607
166 8.140685010157 19.173043914433 0.2779
112 7.577643769654 9.817860267162 0.2893
167 9.979269968148 6.611050429472 0.2762
113 5.912335756879 2.194575313624 0.2715
168 6.199356815159 6.945642289548 0.2730
169 10.259997856894 9.812685085599 0.2891
170 0.373062496248 8.355063828375 0.2796
171 8.080152993373 16.567681448733 0.2615
172 16.465603042656 14.313720000407 0.2520
173 4.168343283918 16.151247679347 0.2826
174 0.524888659940 6.109131310479 0.2581
150 11.612844780813 12.702966870605 0.2747
151 2.621424112705 18.539669243356 0.2558
152 7.721590967070 5.380937940166 0.2742
153 18.862464894312 16.207480748842 0.2752
154 8.950604407320 10.656416371318 0.2844
155 6.549730016475 8.100386616487 0.2732
156 10.710170834152 19.464618934792 0.2756
157 14.738407955179 14.090804404394 0.2524
158 5.520342946277 15.299500861461 0.2644
159 4.372641136662 1.704738152332 0.2707
160 14.463132507929 1.218256200083 0.2571
161 3.062604238492 8.254444805718 0.2608
100 0.585957284433 9.805343880687 0.2504
101 14.529959292060 7.304604880461 0.2531
102 15.094724118774 12.133003367371 0.2676
103 1.647613514891 4.162997288104 0.2736
104 0.816553415426 15.820153066285 0.2802
105 18.771144279122 17.100499460229 0.2819
106 17.082203044472 2.627326183375 0.2791
107 0.837708465757 13.962145991331 0.2687
108 13.956295923521 13.322919710823 0.2622
109 0.268123124935 11.005300383416 0.2644
110 17.559254986706 9.118222060828 0.2674
111 13.899933783530 17.072970153736 0.2524
137 16.059583417730 17.870052719170 0.2796
138 10.504209405852 18.251262787859 0.2670
139 9.073360467419 15.386318244642 0.2530
140 6.363886967897 8.956263570903 0.2772
141 4.326692892508 9.481523462733 0.2570
142 4.907545516737 11.612421449698 0.2503
143 11.559426172686 13.625115479438 0.2506
144 10.713438418199 17.480877845987 0.2616
145 4.193868622494 12.065306237419 0.2594
146 8.471292329184 5.165804992411 0.2562
147 16.204943039558 11.712036768636 0.2525
148 17.928377277490 5.724366852863 0.2752
149 1.210193356516 13.223103140069 0.2828
114 18.978351610208 14.262920354058 0.2694
50 13.799572489912 11.241668561677 0.2590
115 8.074590383783 10.859977882451 0.2736
51 13.365250777632 14.358164840107 0.2583
116 4.081960456394 7.517096116452 0.2633
52 2.836834586692 4.133466431024 0.2579
117 15.627167522795 8.641116243803 0.2757
53 2.605124767020 6.839375232802 0.2591
118 2.889351801328 12.418922520383 0.2582
54 5.418522652459 3.619538558259 0.2708
119 6.852912884037 6.319008361964 0.2853
55 9.381182288436 12.383940368924 0.2769
120 16.910651717530 6.202635743185 0.2565
56 11.443951095231 1.053426417839 0.2586
121 14.564181313068 5.233480502934 0.2511
57 5.185219558519 10.488914105423 0.2639
122 2.287406580048 1.589475477894 0.2522
58 16.572205426602 8.598051302896 0.2741
123 2.068616954282 14.530776062954 0.2671
124 16.230460906392 5.151351225999 0.2640
59 3.057013355689 2.003494299444 0.2601
60 17.958983526586 15.877604112957 0.2855
61 9.095978486586 2.825584136031 0.2770
125 3.772100168312 12.900784558453 0.2700
126 5.252465890893 7.529513681491 0.2786
127 18.534411427740 11.023072551345 0.2864
128 14.825691696429 8.188898245363 0.2661
129 16.399797987321 7.519449147011 0.2608
130 17.309844196851 18.244316583945 0.2583
131 0.540101122738 16.966420678871 0.2881
132 3.283017742223 11.624684201262 0.2752
133 15.349752482601 5.765550401957 0.2589
134 10.505094555278 16.515459351945 0.2837
135 2.541798030163 13.473324340980 0.2528
136 0.822030056347 4.798281808010 0.2848
202

-2 0.0 0.0 0.00000001 0.0 0.0
-1 20.000000 20.000000 0.00000001 0.0 0.0
62 7.863568280241 8.907576371759 0.2569
25 3.573540374075 4.999438170831 0.2862
63 17.278097288525 13.642154574025 0.2871
64 7.741330502511 12.776008519777 0.2548
26 7.305290716239 4.605845330861 0.2556
65 7.690951951312 11.808959213655 0.2675
27 15.176725941598 18.686701815162 0.2771
28 16.670366013620 9.896462812965 0.2586
66 11.768588337680 4.103955857045 0.2886
29 17.424419409859 7.908987099371 0.2727
67 9.271196654401 4.776336400479 0.2768
30 11.127004903976 5.267637791385 0.2584
68 13.186872583705 6.276974228616 0.2607
31 9.948853508191 8.002580057017 0.2777
69 1.478550766098 7.176730387861 0.2669
32 17.581391738710 16.896129718317 0.2600
33 14.896536916547 0.346383964254 0.2656
70 5.092499318406 16.219675999219 0.2750
71 15.641087858179 13.938114769102 0.2717
34 13.315468456787 15.104071713515 0.2502
72 4.250188760299 19.272329055866 0.2615
35 12.437685417185 12.821614129915 0.2538
36 8.156236541486 14.377966551149 0.2668
73 1.577813772465 0.559806968567 0.2794
37 7.731042857465 3.865911444346 0.2592
74 16.030560356986 16.327246338073 0.2791
38 5.727292189465 11.277623199635 0.2524
50 13.798301869495 11.238377252493 0.2590
39 12.936203245482 7.397341393324 0.2653
51 13.384025507731 14.380200255216 0.2583
40 17.952273860229 10.073988980395 0.2665
41 17.084764708925 12.685455620865 0.2723
52 2.839979579255 4.131201053096 0.2579
42 0.464939905255 2.035241346775 0.2775
53 2.594259665528 6.835360131441 0.2591
43 11.294189445614 7.828815429320 0.2752
54 5.419815675059 3.612465277008 0.2708
44 10.769386344524 7.094147764171 0.2667
55 9.381269868836 12.380270210317 0.2769
45 1.867115852148 5.579997831160 0.2755
56 11.441312438867 1.050885888304 0.2586
46 0.610068782360 1.104189608031 0.2780
57 5.181738054270 10.481425790343 0.2639
47 6.780508433786 1.927808381921 0.2657
58 16.549888002203 8.755862372074 0.2741
48 18.997214759142 13.467713210029 0.2593
59 3.088626251092 2.048461192184 0.2601
49 13.682085655485 5.016678917377 0.2726
60 17.953017917343 15.870537087884 0.2855
12 3.529061901664 9.070017461969 0.2729
13 1.783518252617 3.371928540120 0.2662
61 9.096715069151 2.821990842260 0.2770
14 11.568746689769 18.935841388259 0.2537
87 1.942947853561 13.080489255905 0.2784
15 13.226579792756 3.989072879001 0.2672
16 17.026356555601 11.162552865971 0.2755
88 7.768156019480 6.206837125665 0.2826
17 14.564969290973 10.341970018319 0.2850
89 9.211015817828 14.211331493008 0.2629
18 13.069575607308 13.715915306377 0.2798
90 7.947321821985 7.241090765092 0.2665
19 10.335849334058 13.707440161763 0.2765
20 4.931070101474 4.917791445426 0.2725
91 11.067451205874 6.249601019577 0.2712
21 6.833056032589 5.399742501289 0.2658
92 4.724731311269 18.497527788245 0.2763
22 2.247866761711 2.494369395364 0.2647
93 12.918729018576 5.458311326638 0.2664
23 18.641701592360 3.982686590427 0.2542
24 2.746722834163 0.772371832849 0.2774
94 5.468796577474 6.390108705757 0.2734
0 15.399524311404 2.208373998420 0.2573
95 11.787576766081 8.910377651235 0.2844
1 5.064188819570 13.758507639318 0.2868
2 10.127130678664 10.835064057488 0.2774
3 1.487703439804 12.351410070288 0.2747
4 18.974208360059 2.536923161446 0.2638
5 6.706845521371 2.833688359619 0.2522
6 0.270805403579 7.219717715116 0.2517
96 2.613937309637 11.245477404773 0.2780
7 3.238617999423 9.970005797084 0.2810
8 3.871797366091 2.738142237845 0.2855
9 11.969426038883 17.075556548061 0.2652
10 17.918431672809 12.954880489958 0.2811
11 15.826872754324 6.521184844888 0.2679
75 12.191407843941 5.279549965162 0.2765
76 1.571010254768 8.144040731327 0.2659
77 12.393211428420 9.776252613827 0.2560
97 3.467431334483 6.893845340447 0.2708
78 12.936379559738 16.100320131318 0.2832
79 1.306274297189 9.300619149144 0.2854
98 18.263712654961 8.045165880631 0.2763
80 19.406157139968 0.764055797480 0.2701
99 6.615649219248 4.560075385657 0.2853
81 15.898846102400 15.309965735272 0.2771
175 16.920435612811 16.292926376976 0.2630
82 6.887311764101 7.353454124802 0.2708
176 15.567719485502 11.120372856417 0.2668
83 0.297012732597 14.667000489175 0.2750
84 17.879255487915 14.210013051557 0.2611
177 12.859983238619 18.401610684653 0.2774
85 18.702997016518 6.815301355594 0.2633
178 15.535535417745 10.250033366203 0.2852
86 5.671668181697 4.468587528216 0.2692
179 6.199875303324 19.252396058249 0.2797
162 18.450496625028 18.516989901609 0.2513
180 3.059147689550 16.440103663061 0.2589
163 8.759374279820 19.054119412013 0.2712
181 10.063883762062 0.602580667170 0.2637
164 16.386987672653 4.228717973928 0.2859
182 16.227543931257 2.389288064656 0.2672
165 2.848881187292 19.411612865912 0.2798
166 8.078410437517 19.182486698794 0.2779
183 17.594588006744 19.452734960481 0.2765
167 9.973876622491 6.604600792557 0.2762
184 9.306084079644 19.743313641876 0.2590
168 6.158374856022 7.007733594405 0.2730
185 6.864988289902 10.477902969925 0.2511
169 10.267828407372 9.748770902349 0.2891
186 3.536495886347 1.314253707034 0.2572
170 0.298438328192 8.261259984184 0.2796
171 8.080500202762 16.564029474606 0.2615
187 10.546388347597 2.204024645685 0.2617
172 16.582111268721 14.346163528513 0.2520
188 9.872783718126 18.267569276146 0.2700
173 4.250271261526 16.125057992968 0.2826
189 5.617601698783 18.548587272918 0.2669
174 0.527940795874 6.106851473476 0.2581
190 13.246219013154 2.014583935127 0.2712
150 11.607283195178 12.690636197498 0.2747
151 2.615238465468 18.507285008550 0.2558
191 3.471106441678 13.684094534656 0.2619
152 7.684224125573 5.433084730851 0.2742
192 6.100825295606 10.274995540408 0.2537
153 18.869687288145 16.171583378749 0.2752
193 15.466818023184 7.796937645040 0.2771
154 8.985085523013 10.644720516874 0.2844
155 6.545439963163 8.091385368535 0.2732
156 10.706515305155 19.465427908264 0.2756
157 14.613831801673 14.091961222591 0.2524
158 5.522330786075 15.293778312316 0.2644
194 12.915022001195 0.794118363638 0.2674
159 4.435731959383 1.657574315882 0.2707
195 5.073468341128 1.427120546012 0.2787
196 10.006452235098 1.491844040200 0.2652
197 2.158242807257 10.499169548935 0.2771
160 14.458024956937 1.220379683759 0.2571
198 7.528892160382 1.513621997754 0.2592
199 17.104333737914 6.793112057400 0.2607
161 3.063362460130 8.248982480843 0.2608
112 7.627975384998 9.774709477401 0.2893
113 5.977040162298 2.250707861514 0.2715
114 19.060236970504 14.311354204189 0.2694
115 8.041652133259 10.863394913967 0.2736
100 0.563614052519 9.837410653697 0.2504
116 4.102442361292 7.532024087956 0.2633
101 14.526736570926 7.297898861621 0.2531
117 15.657677889528 8.697290918435 0.2757
102 15.092939790000 12.130203546117 0.2676
118 2.878504456677 12.428679078594 0.2582
103 1.631231271066 4.248360735605 0.2736
119 6.905575992613 6.330207063858 0.2853
104 0.818461739792 15.816542773707 0.2802
120 16.903113580795 6.156872188181 0.2565
105 18.766312000253 17.132119571842 0.2819
121 14.567141977446 5.230598657534 0.2511
106 17.107755631571 2.633998713503 0.2791
122 2.224417441703 1.602905695766 0.2522
107 0.835102886691 13.983794015337 0.2687
123 2.070250506536 14.527809288657 0.2671
108 13.958018615240 13.318035237316 0.2622
124 16.226569339059 5.158660075353 0.2640
109 0.270487477192 11.002578720518 0.2644
110 17.502748241959 9.209249663749 0.2674
111 13.899195363395 17.069386793929 0.2524
137 16.058607651440 17.866353048086 0.2796
138 10.460900291655 18.243609858415 0.2670
139 9.073490407343 15.382898001528 0.2530
140 6.351174311927 9.015077356184 0.2772
141 4.344182425661 9.484844073621 0.2570
142 4.880538569774 11.620086391442 0.2503
143 11.558614490620 13.628875378049 0.2506
144 10.719189368448 17.397860530041 0.2616
145 4.294769222772 12.044492838117 0.2594
146 8.495182692392 5.175073514846 0.2562
147 16.184776968982 11.772511272482 0.2525
148 17.925899680128 5.721896498687 0.2752
149 1.158657791854 13.150267815503 0.2828
125 3.760198332890 12.967706256525 0.2700
126 5.254013550134 7.527278659318 0.2786
127 18.532679129843 11.020881519687 0.2864
128 14.773484971969 8.171751938566 0.2661
129 16.382332460450 7.475409338666 0.2608
130 17.307758116840 18.240154231080 0.2583
131 0.541738346019 16.963624304402 0.2881
132 3.263056516447 11.582960016030 0.2752
133 15.342217785673 5.753830729369 0.2589
134 10.504641636273 16.509842191598 0.2837
135 2.614594610437 13.526054067886 0.2528
136 0.735255707705 4.730203061881 0.2848
202

-2 0.0 0.0 0.00000001 0.0 0.0
-1 20.000000 20.000000 0.00000001 0.0 0.0
125 3.754303150731 13.019292401500 0.2700
175 16.912505629923 16.270512962310 0.2630
62 7.866450962754 8.896527623791 0.2569
176 15.527317392918 11.100891239697 0.2668
126 5.255619858490 7.524621894539 0.2786
63 17.266835258827 13.668895490107 0.2871
177 12.859358405726 18.397009929863 0.2774
127 18.530486167866 11.018104622623 0.2864
64 7.742269360043 12.776325649912 0.2548
65 7.690575209880 11.801666679761 0.2675
178 15.541021229598 10.228288361501 0.2852
128 14.711182710807 8.161999669449 0.2661
66 11.733123263163 4.014829986339 0.2886
129 16.365398976670 7.432195636414 0.2608
179 6.211329810298 19.260220048957 0.2797
130 17.305292559201 18.235064697398 0.2583
180 2.978228003376 16.457473697339 0.2589
131 0.543810082016 16.960084349207 0.2881
181 10.064452957323 0.584582576305 0.2637
67 9.346359037810 4.738402180603 0.2768
132 3.270168574467 11.552978639855 0.2752
182 16.211304117139 2.383202158034 0.2672
25 3.577570804010 4.997041210733 0.2862
68 13.192640936857 6.293872030466 0.2607
133 15.333821174416 5.740610586216 0.2589
183 17.531384803412 19.516450878757 0.2765
26 7.391379086561 4.560844253161 0.2556
69 1.481440391512 7.168272443771 0.2669
184 9.326245249204 19.710065850767 0.2590
134 10.503492690291 16.500484309352 0.2837
70 5.104500596863 16.219118197032 0.2750
27 15.175298269109 18.682449706170 0.2771
185 6.857922862962 10.521281602895 0.2511
135 2.691553189943 13.581390063663 0.2528
28 16.667778398614 9.892862250941 0.2586
71 15.644720947527 13.894320509030 0.2717
186 3.513154593623 1.263126058778 0.2572
136 0.651528732720 4.664235064539 0.2848
72 4.242114964803 19.282391060562 0.2615
29 17.456652038681 7.874316376061 0.2727
137 16.057372292726 17.861673060640 0.2796
187 10.559905743404 2.218227513148 0.2617
73 1.582777501511 0.558745763909 0.2794
30 11.124667500819 5.259972480518 0.2584
138 10.532015551877 18.233195952282 0.2670
188 9.801090153340 18.198039874861 0.2700
74 16.014011520954 16.326401120564 0.2791
31 9.948641630476 7.998139413908 0.2777
139 9.073654753101 15.378570047630 0.2530
189 5.625543952051 18.532573569981 0.2669
32 17.599590376848 16.911645267536 0.2600
50 13.796687922789 11.234222340800 0.2590
190 13.265744292861 2.098708336832 0.2712
140 6.338819776504 9.072985476041 0.2772
51 13.413430538145 14.402553146696 0.2583
33 14.893863024593 0.342127226058 0.2656
191 3.563830313692 13.724385603250 0.2619
141 4.363694016754 9.488083412290 0.2570
52 2.843916359905 4.128321474626 0.2579
34 13.333874313013 15.070716142687 0.2502
192 6.064805449528 10.262768098154 0.2537
142 4.869753141251 11.614820034625 0.2503
53 2.580997935613 6.830447263042 0.2591
35 12.402887226886 12.755252245398 0.2538
143 11.557659653124 13.632992989628 0.2506
193 15.361732656956 7.776780133576 0.2771
36 8.155282343886 14.373549295872 0.2668
54 5.420949275627 3.601681575788 0.2708
194 12.887216261300 0.705910685107 0.2674
144 10.726451632840 17.315871829998 0.2616
37 7.737335890099 3.854156616762 0.2592
55 9.381380611785 12.375627321429 0.2769
195 5.083403047616 1.345691052087 0.2787
145 4.376648324534 12.035465037332 0.2594
38 5.765605359746 11.264555547387 0.2524
56 11.437973441863 1.047672390795 0.2586
146 8.519938400810 5.183244267927 0.2562
196 9.991942183487 1.481730778985 0.2652
57 5.176920996448 10.472600588917 0.2639
39 12.934582176964 7.393332937459 0.2653
147 16.166212511541 11.832148468538 0.2525
197 2.152696015301 10.483073041551 0.2771
40 17.949804631154 10.071115916374 0.2665
58 16.530873528100 8.907620872406 0.2741
198 7.564720114422 1.490117396656 0.2592
148 17.922810402681 5.718754677186 0.2752
59 3.119902068062 2.094358562020 0.2601
41 17.066871026066 12.643238522592 0.2723
199 17.212518499105 6.738813659420 0.2607
149 1.092454431982 13.082104497648 0.2828
60 17.945431131535 15.861803064663 0.2855
42 0.467188360170 2.048842845557 0.2775
112 7.676419441107 9.734623337250 0.2893
162 18.511092909201 18.445470383844 0.2513
61 9.097646941898 2.817445074323 0.2770
43 11.308779311259 7.845859556358 0.2752
163 8.739757353985 19.060508652900 0.2712
113 6.035175998667 2.305152128025 0.2715
44 10.755707409224 7.085827827597 0.2667
87 1.944650207381 13.021705011785 0.2784
114 19.139375147335 14.362656707181 0.2694
164 16.385255352747 4.214119192276 0.2859
45 1.957132695454 5.642295350862 0.2755
88 7.785024317388 6.237374985134 0.2826
115 8.008649075653 10.865408020171 0.2736
165 2.858140573001 19.437140459452 0.2798
46 0.616071846127 1.089539769106 0.2780
89 9.212435614625 14.206256727763 0.2629
166 7.976439062960 19.198467976135 0.2779
116 4.124812715256 7.547599024301 0.2633
90 7.949516931723 7.238195554940 0.2665
47 6.766436085805 1.898752187324 0.2657
167 9.966773476471 6.596231815058 0.2762
117 15.684070918401 8.753771034047 0.2757
48 19.070890858615 13.452070245029 0.2593
91 11.072092011924 6.233775953517 0.2712
118 2.867445971634 12.438553151546 0.2582
168 6.111672394693 7.064261596430 0.2730
49 13.681690644071 5.004591621125 0.2726
92 4.717698661217 18.477592274699 0.2763
119 6.951752068356 6.341943239640 0.2853
169 10.275459856720 9.685420062342 0.2891
93 12.954022507338 5.459517847846 0.2664
12 3.526574426751 9.035912808041 0.2729
120 16.883818294215 6.075350748991 0.2565
170 0.308578431199 8.170317311968 0.2796
94 5.416136292152 6.354305655489 0.2734
13 1.769113674001 3.363908750781 0.2662
121 14.570310163463 5.226714566757 0.2511
171 8.080939441524 16.559409501440 0.2615
14 11.668773453796 19.002069568835 0.2537
95 11.785849428422 8.904503179357 0.2844
172 16.694245965957 14.377496166220 0.2520
122 2.163000350948 1.613430768433 0.2522
15 13.223587103081 3.984637140252 0.2672
96 2.547945605145 11.210480112805 0.2780
123 2.072290808043 14.524081478802 0.2671
173 4.322391229407 16.097782649821 0.2826
16 17.081220839896 11.126281652875 0.2755
97 3.467512708015 6.872570352065 0.2708
174 0.531817801275 6.103945980043 0.2581
124 16.221868882098 5.166750146328 0.2640
98 18.348113900285 7.962286500149 0.2763
17 14.553816224994 10.338085174540 0.2850
150 11.596389860769 12.675243791960 0.2747
100 0.540708417362 9.869117034580 0.2504
99 6.574855683169 4.534601883026 0.2853
18 13.082430850342 13.719522515973 0.2798
101 14.522170873846 7.288253111029 0.2531
151 2.609152889061 18.473038729609 0.2558
19 10.335840680669 13.702732066500 0.2765
75 12.168964136710 5.339187245089 0.2765
102 15.090632291479 12.126683675338 0.2676
20 4.855966716266 4.951469809456 0.2725
152 7.648150607215 5.469937474630 0.2742
103 1.616387276378 4.333763205744 0.2736
76 1.575635677047 8.145402106175 0.2659
21 6.829355287485 5.329859977696 0.2658
104 0.820891547707 15.812012630843 0.2802
77 12.393356344726 9.773276137934 0.2560
22 2.289298981237 2.415009905374 0.2647
105 18.761036739318 17.163467285362 0.2819
23 18.637514240777 3.980683406892 0.2542
78 12.913400618459 16.154901663111 0.2832
106 17.134191033751 2.640818320662 0.2791
24 2.768540396777 0.726145248219 0.2774
107 0.834600658576 14.003788968935 0.2687
79 1.409530659371 9.351352996466 0.2854
0 15.376456774378 2.202375270267 0.2573
108 13.960198348788 13.311271532049 0.2622
80 19.401530247912 0.763666185358 0.2701
1 5.065671196108 13.754106298874 0.2868
109 0.273471424798 10.999165667663 0.2644
81 15.896548183970 15.302733391757 0.2771
2 10.119893357657 10.889166514053 0.2774
110 17.447540180688 9.295461790250 0.2674
111 13.898264580216 17.064856548745 0.2524
153 18.878004508728 16.134704766086 0.2752
82 6.952500694294 7.321488093297 0.2708
154 9.020021108525 10.631903486150 0.2844
83 0.356852462549 14.755403834277 0.2750
155 6.538210767190 8.088415798069 0.2732
156 10.702405043945 19.465519107580 0.2756
3 1.465092086895 12.266043646935 0.2747
157 14.492865506128 14.092538890970 0.2524
158 5.524820909325 15.286583322639 0.2644
4 18.969754741123 2.535608404129 0.2638
159 4.451980819854 1.629391954338 0.2707
5 6.706482851980 2.876913132947 0.2522
160 14.451620999339 1.222941344678 0.2571
6 0.274147254048 7.216594715959 0.2517
161 3.063950666790 8.241446518555 0.2608
7 3.231414374323 9.992911525606 0.2810
8 3.846351243302 2.819370376928 0.2855
84 17.808918349680 14.218161165082 0.2611
9 11.969023686278 17.070929819723 0.2652
85 18.699437147234 6.812382589468 0.2633
10 17.852530701468 12.901273509070 0.2811
86 5.659330817960 4.432360693562 0.2692
11 15.831150404556 6.530241763964 0.2679
202

-2 0.0 0.0 0.00000001 0.0 0.0
-1 20.000000 20.000000 0.00000001 0.0 0.0
175 16.906174334983 16.246680517672 0.2630
162 18.569295329712 18.375320084905 0.2513
62 7.870645535084 8.879447073248 0.2569
63 17.244564038078 13.682047420083 0.2871
163 8.735835314240 19.059698863076 0.2712
176 15.487135391186 11.085045360307 0.2668
64 7.743388915135 12.776490393142 0.2548
164 16.382935657226 4.197895486714 0.2859
177 12.858615688252 18.391471978540 0.2774
65 7.690015858151 11.793560324594 0.2675
165 2.867679774030 19.461682686861 0.2798
178 15.547177695851 10.201256810197 0.2852
66 11.698453838994 3.927578457865 0.2886
166 7.860445046028 19.216016148838 0.2779
179 6.223957264424 19.268392726073 0.2797
167 9.957919653858 6.585917497486 0.2762
67 9.420733876163 4.699764839036 0.2768
168 6.064586798819 7.116607840977 0.2730
68 13.198864059118 6.312794298602 0.2607
180 2.900364168390 16.473263529467 0.2589
169 10.282854523363 9.622954008106 0.2891
69 1.484906608011 7.158409095765 0.2669
181 10.065212407198 0.563455999554 0.2637
170 0.368920601070 8.083133570189 0.2796
70 5.130508253283 16.220408510385 0.2750
182 16.197320399878 2.377399980187 0.2672
171 8.081467689759 16.553853273420 0.2615
71 15.647834117784 13.850867557198 0.2717
183 17.469876165348 19.577074189546 0.2765
172 16.800552476550 14.409003359782 0.2520
72 4.233627053201 19.292726800807 0.2615
184 9.348215526869 19.679335273684 0.2590
173 4.378127706863 16.068074962989 0.2826
73 1.588811740819 0.557432805883 0.2794
185 6.855517541746 10.563667924002 0.2511
74 15.994638223214 16.325463865713 0.2791
174 0.536494971789 6.100431045693 0.2581
186 3.493675989802 1.212865149024 0.2572
150 11.577884350720 12.657286940209 0.2747
50 13.794737166846 11.229238657520 0.2590
51 13.453100764432 14.405613836754 0.2583
151 2.603428553368 18.438011429558 0.2558
187 10.573967617098 2.232302630692 0.2617
152 7.616234265925 5.491619975202 0.2742
52 2.848599829278 4.124845696603 0.2579
188 9.697428029239 18.129007841039 0.2700
153 18.887156751977 16.097788973964 0.2752
53 2.565955001247 6.824763624992 0.2591
189 5.634906515066 18.514504843214 0.2669
154 9.054359941771 10.618201837846 0.2844
54 5.421568286750 3.585980932992 0.2708
190 13.283739510390 2.179444644727 0.2712
55 9.381513689249 12.370043723694 0.2769
155 6.529691051060 8.087972900659 0.2732
191 3.651068030879 13.783732871222 0.2619
56 11.433956697155 1.043808236000 0.2586
156 10.698130507085 19.464700022948 0.2756
192 6.028011948488 10.247808260606 0.2537
157 14.376330579086 14.093094387532 0.2524
57 5.170335089050 10.462856388419 0.2639
158 5.527784675197 15.277974614869 0.2644
58 16.516208156882 9.053051876559 0.2741
193 15.275649536822 7.746955327603 0.2771
59 3.152839562835 2.138757681324 0.2601
159 4.429178210366 1.619671171993 0.2707
194 12.859268639055 0.620299113231 0.2674
160 14.443999396548 1.225848726467 0.2571
195 5.134287126156 1.248991193070 0.2787
60 17.936386676994 15.851592120459 0.2855
196 9.976598600751 1.472056114684 0.2652
161 3.064068953966 8.231412906464 0.2608
61 9.098767731035 2.811978055089 0.2770
197 2.143560344016 10.458606116415 0.2771
25 3.582385447762 4.994157827062 0.2862
87 1.954287836693 12.965466953264 0.2784
198 7.602640812500 1.465524594938 0.2592
88 7.813301061775 6.280091576525 0.2826
26 7.482148662344 4.522728337172 0.2556
199 17.324065247080 6.701742309634 0.2607
27 15.173581995971 18.677335270943 0.2771
89 9.214120928285 14.200158860472 0.2629
75 12.135496526191 5.393928291565 0.2765
90 7.952926782080 7.235108219960 0.2665
28 16.664117823041 9.890125453290 0.2586
76 1.581018464832 8.146872915148 0.2659
29 17.483563400782 7.839714877135 0.2727
91 11.077427319468 6.215911447472 0.2712
77 12.393508230513 9.769664905826 0.2560
30 11.121842160961 5.250407160445 0.2584
92 4.709358476782 18.455428531214 0.2763
78 12.890964422002 16.206702982737 0.2832
93 12.994172404992 5.460654502757 0.2664
31 9.948386457109 7.992804113969 0.2777
79 1.510789560074 9.399234734135 0.2854
94 5.365064173143 6.317903232757 0.2734
32 17.617719915713 16.926902935950 0.2600
80 19.395965693442 0.763197615809 0.2701
95 11.783826361019 8.897541868604 0.2844
33 14.890562589003 0.337179485162 0.2656
81 15.893833969725 15.294025166827 0.2771
96 2.476953152293 11.177948750437 0.2780
34 13.347449314614 15.070471407186 0.2502
35 12.376937127931 12.690649032723 0.2538
97 3.470252061571 6.850108992951 0.2708
82 7.021433996992 7.288239932108 0.2708
36 8.154155472954 14.368233989209 0.2668
98 18.432593706277 7.881813137710 0.2763
83 0.413314623901 14.842813834638 0.2750
37 7.747945576172 3.833344482251 0.2592
99 6.525702850520 4.501554548837 0.2853
84 17.752060065582 14.236810188683 0.2611
38 5.804241603606 11.251473018076 0.2524
12 3.524950786579 9.002246905129 0.2729
85 18.695177450601 6.808803605762 0.2633
13 1.756221335544 3.354788482461 0.2662
39 12.932617816899 7.388566978535 0.2653
86 5.648016880385 4.399841020993 0.2692
40 17.947808701637 10.068999309206 0.2665
14 11.765729066412 19.064901053605 0.2537
41 17.040466434804 12.598025759038 0.2723
15 13.219971785229 3.979279122161 0.2672
0 15.348843774107 2.195208247202 0.2573
16 17.133816369218 11.090212715062 0.2755
42 0.470194874068 2.063276447289 0.2775
1 5.067456735606 13.748813452908 0.2868
17 14.541267314949 10.333355578451 0.2850
43 11.323831913093 7.862675677394 0.2752
2 10.113101547322 10.940552869175 0.2774
44 10.742270207240 7.078727915733 0.2667
18 13.085913049005 13.706952978818 0.2798
19 10.335830042687 13.697068568747 0.2765
45 2.045079584832 5.701904279948 0.2755
3 1.443392896407 12.175730227434 0.2747
20 4.782691294240 4.984174922671 0.2725
46 0.622935984641 1.073868258020 0.2780
4 18.964398594417 2.534027177499 0.2638
47 6.756932607390 1.867280392800 0.2657
21 6.820839423307 5.267637836820 0.2658
5 6.709258097863 2.920909734914 0.2522
22 2.329097662520 2.345558370770 0.2647
48 19.141395537815 13.433668115056 0.2593
6 0.278101471961 7.211512751279 0.2517
49 13.683127249769 4.988960517602 0.2726
23 18.632478297236 3.978274295819 0.2542
7 3.224790287204 10.015121881045 0.2810
24 2.789145038833 0.679700266334 0.2774
8 3.823189604381 2.897951707466 0.2855
9 11.968542757979 17.065374824922 0.2652
10 17.797889160213 12.849740136687 0.2811
11 15.835171752970 6.539278485120 0.2679
100 0.518633202940 9.899318713897 0.2504
101 14.515668192668 7.274946956766 0.2531
112 7.722405338255 9.699860013649 0.2893
102 15.087769310696 12.122482003333 0.2676
113 6.084427027153 2.358270823245 0.2715
103 1.603546018672 4.416765860153 0.2736
114 19.215539101539 14.413707319230 0.2694
104 0.823877557289 15.806715381822 0.2802
115 7.976610733812 10.865608950613 0.2736
105 18.755457093456 17.193535601237 0.2819
116 4.148131597356 7.562990044116 0.2633
106 17.160309545770 2.647457016864 0.2791
117 15.703989603591 8.807333454935 0.2757
107 0.836106449913 14.020936211459 0.2687
118 2.856753605922 12.447791726151 0.2582
108 13.962531777494 13.302000228632 0.2622
119 6.988072263354 6.352818754793 0.2853
109 0.277047538347 10.995117192157 0.2644
120 16.856792463303 5.979481621456 0.2565
110 17.394036947034 9.375996088527 0.2674
121 14.573311476735 5.221693358698 0.2511
111 13.897150296154 17.059412324674 0.2524
122 2.103019552356 1.616668086054 0.2522
125 3.754903144669 13.047524924394 0.2700
137 16.055885226393 17.856045164609 0.2796
123 2.074706803614 14.519626680240 0.2671
124 16.216439554673 5.175011893278 0.2640
138 10.634715942405 18.224337672573 0.2670
126 5.256540228318 7.521921642541 0.2786
139 9.073852351343 15.373363330149 0.2530
127 18.527849611223 11.014760533418 0.2864
140 6.327060715552 9.128877334257 0.2772
128 14.634980922844 8.163311721172 0.2661
141 4.384382953884 9.490904515856 0.2570
129 16.348699609346 7.389893928390 0.2608
142 4.892533880640 11.580077732025 0.2503
130 17.302494494394 18.229108006380 0.2583
143 11.556609132022 13.637126798472 0.2506
131 0.546302457563 16.955823552183 0.2881
144 10.735596231843 17.240228217119 0.2616
145 4.422721867550 12.054704996674 0.2594
132 3.290052524829 11.527754994747 0.2752
146 8.544719803802 5.190212736129 0.2562
133 15.325128495731 5.726643809909 0.2589
147 16.148473404214 11.889621163053 0.2525
134 10.500583005855 16.483924264488 0.2837
148 17.919181583706 5.714939161040 0.2752
149 1.020525229773 13.017667680141 0.2828
135 2.765598315466 13.634782381021 0.2528
136 0.570733320587 4.600198386108 0.2848
202

-2 0.0 0.0 0.00000001 0.0 0.0
-1 20.000000 20.000000 0.00000001 0.0 0.0
125 3.759021770702 13.055407937514 0.2700
175 16.901337984369 16.221906173665 0.2630
126 5.255071056473 7.519985631089 0.2786
176 15.447417379234 11.072441176558 0.2668
127 18.524792785660 11.010874291362 0.2864
177 12.857768077253 18.385025155223 0.2774
128 14.547017804821 8.175064669778 0.2661
129 16.332369343016 7.348846510620 0.2608
178 15.553833059623 10.169889143859 0.2852
130 17.299395869549 18.222332606892 0.2583
179 6.237359732143 19.276500767292 0.2797
180 2.825511156854 16.487516450680 0.2589
131 0.549200195499 16.950867019974 0.2881
132 3.314392993106 11.503704216339 0.2752
181 10.066160914735 0.539707445085 0.2637
182 16.185507441933 2.371903842836 0.2672
133 15.316641208835 5.712561866556 0.2589
183 17.410045946226 19.634658838427 0.2765
184 9.372149290470 19.651259797780 0.2590
25 3.587893803324 4.990804373981 0.2862
185 6.855613661636 10.604435401760 0.2511
26 7.566890026255 4.498468864714 0.2556
27 15.171588285321 18.671390241257 0.2771
186 3.478466604653 1.165190159174 0.2572
28 16.658808916690 9.894568246153 0.2586
187 10.588145775385 2.245716339498 0.2617
29 17.507024172074 7.805505668702 0.2727
30 11.118398875097 5.238837489021 0.2584
188 9.594249037512 18.060937898688 0.2700
31 9.948087708917 7.986611341526 0.2777
189 5.645426640982 18.494831145026 0.2669
32 17.635283756771 16.941414582226 0.2600
33 14.886619179463 0.331647140783 0.2656
190 13.300254380562 2.256840598226 0.2712
34 13.355242636122 15.101880780795 0.2502
35 12.360672047039 12.627446070687 0.2538
191 3.735255684347 13.859047467613 0.2619
36 8.152873743504 14.362052473235 0.2668
192 5.993326090608 10.230506368583 0.2537
37 7.764414875410 3.797143482164 0.2592
38 5.842969785859 11.238350998955 0.2524
193 15.208221256276 7.709573691772 0.2771
39 12.930310527051 7.383114388711 0.2653
194 12.831193992714 0.537282289603 0.2674
40 17.947186659879 10.068406582706 0.2665
41 17.002613264197 12.549185101581 0.2723
195 5.197461562254 1.148655410523 0.2787
42 0.474006360029 2.078028268121 0.2775
43 11.338892828307 7.878631612236 0.2752
196 9.960848669558 1.462952554780 0.2652
44 10.729666213461 7.072944503080 0.2667
45 2.130952404786 5.758837174185 0.2755
197 2.129580308282 10.421765406729 0.2771
46 0.630525722862 1.057707067983 0.2780
198 7.641655751807 1.440415858467 0.2592
47 6.752568341964 1.832727547993 0.2657
48 19.208877876193 13.413975500250 0.2593
199 17.433423673317 6.668973306857 0.2607
49 13.687673213442 4.968838213837 0.2726
162 18.625118220568 18.306593519942 0.2513
12 3.524839365036 8.970311515076 0.2729
163 8.733927999355 19.054304105696 0.2712
164 16.379980632958 4.180502727864 0.2859
13 1.744756426094 3.345255386553 0.2662
134 10.494025732579 16.454952499969 0.2837
165 2.877359146457 19.484785001411 0.2798
14 11.859483344603 19.124511046750 0.2537
135 2.835802560263 13.685341982897 0.2528
15 13.215746685697 3.973016680199 0.2672
166 7.743896872420 19.232701290712 0.2779
16 17.184096896976 11.054432545825 0.2755
136 0.493028884834 4.537914841618 0.2848
167 9.947357066466 6.573681718538 0.2762
17 14.527686831697 10.327775332155 0.2850
137 16.054155108433 17.849504963487 0.2796
168 6.021353082724 7.164477358786 0.2730
18 13.082271170817 13.683722898065 0.2798
138 10.736843101925 18.215768219758 0.2670
169 10.290005992438 9.561456190067 0.2891
139 9.074081934946 15.367309583340 0.2530
19 10.335817520872 13.690484493202 0.2765
170 0.428448266395 8.001965030504 0.2796
20 4.712251821686 5.015321036109 0.2725
140 6.316004166210 9.182243265063 0.2772
171 8.082081632320 16.547395635934 0.2615
21 6.808657661082 5.213347738828 0.2658
141 4.405700740264 9.493083983503 0.2570
142 4.940239346386 11.520056678422 0.2503
22 2.367818240208 2.290683635981 0.2647
62 7.876220962594 8.854577680711 0.2569
172 16.898984280461 14.443330236416 0.2520
63 17.210836894223 13.675410809409 0.2871
